ply
format ascii 1.0
comment Author: CloudCompare (TELECOM PARISTECH/EDF R&D)
obj_info Generated by CloudCompare!
element vertex 1718
property float x
property float y
property float z
property float scalar_Original_cloud_index
end_header
184.539 317.452 -149.572 8 
231.974 385.775 -159.381 8 
-29.2787 -14.5664 -158.14 8 
514.446 493.483 -156.101 8 
107.243 125.825 -195.609 8 
22.5702 46.2292 -138.499 8 
158.995 234.94 -89.8572 8 
558.863 494.338 -140.32 8 
380.061 452.587 -153.072 8 
213.344 292.295 -80.6001 8 
256.315 396.11 -161.204 8 
448.525 485.264 -149.83 8 
306.416 381.527 -103.143 8 
484.423 484.955 -180.141 8 
330.145 417.957 -126.291 8 
593.657 479.771 -115.419 8 
330.814 433.955 -172.327 8 
19.107 33.9514 -167.391 8 
291.395 391.379 -136.183 8 
3.9495 24.9894 -150.534 8 
30.7796 65.6615 -120.317 8 
188.708 283.811 -113.709 8 
241.08 351.015 -140.666 8 
214.352 312.122 -113.747 8 
143.098 251.215 -150.133 8 
67.2762 123.126 -138.121 8 
399.615 475.25 -126.666 8 
139.758 201.473 -105.387 8 
72.9604 135.049 -101.11 8 
36.3811 83.0979 -143.737 8 
122.83 227.233 -168.239 8 
62.4108 128.045 -103.948 8 
39.6229 72.4191 -162.511 8 
160.116 257.965 -138.383 8 
219.94 335.949 -141.633 8 
207.105 300.618 -113.437 8 
165.582 329.88 -166.211 8 
419.896 477.511 -142.774 8 
362.788 445.286 -101.891 8 
496.385 502.836 -142.974 8 
328.79 431.589 -196.424 8 
357.042 439.202 -113.904 8 
424.228 489.497 -116.38 8 
313.414 398.929 -122.54 8 
-13.0205 -24.5701 -173.418 8 
-35.7318 -26.6586 -184.566 8 
566.436 475.002 -159.308 8 
404.353 464.129 -154.62 8 
213.998 317.323 -126.15 8 
53.7263 112.578 -137.636 8 
26.364 90.2833 -116.724 8 
126.866 171.248 -110.027 8 
63.8877 101.024 -214.592 8 
108.16 153.031 -189.473 8 
273.443 373.342 -130.645 8 
197.16 286.271 -98.0173 8 
176.953 276.277 -141.484 8 
115.905 170.338 -123.119 8 
3.9332 31.9434 -134.171 8 
207.049 317.631 -142.146 8 
636.023 431.736 -91.2815 8 
228.99 327.682 -102.754 8 
333.174 414.359 -101.836 8 
-4.20462 15.5687 -201.713 8 
-16.407 14.7113 -147.913 8 
17.4028 35.0098 -155.319 8 
230.353 312.358 -83.285 8 
358.776 433.877 -194.305 8 
42.1628 114.534 -109.657 8 
466.998 501.745 -135.903 8 
145.138 225.282 -96.7679 8 
97.4591 152.854 -127.599 8 
24.613 10.4063 -183.987 8 
128.295 192.367 -123.717 8 
238.387 335.802 -89.9223 8 
246.531 345.519 -107.949 8 
208.495 376.389 -157.902 8 
524.815 490.452 -161.443 8 
382.268 437.719 -190.685 8 
466.467 473.949 -186.034 8 
150.132 311.332 -177.929 8 
132.969 249.639 -173.687 8 
249.985 372.918 -148.233 8 
175.574 272.818 -92.1889 8 
55.416 98.8005 -202.824 8 
198.505 303.908 -132.447 8 
34.0567 102.328 -126.322 8 
371.224 455.404 -103.523 8 
68.6832 115.11 -158.213 8 
104.315 169.439 -175.861 8 
484.577 486.92 -167.903 8 
605.601 467.33 -109.589 8 
346.41 439.248 -185.993 8 
135.11 257.214 -195.879 8 
131.748 245.269 -198.156 8 
151.411 278.905 -158.702 8 
-9.35128 -7.32589 -200.529 8 
60.1518 112.647 -167.464 8 
202.491 353.567 -150.463 8 
16.8644 23.4504 -173.461 8 
314.939 391.148 -107.361 8 
91.0064 159.074 -170.977 8 
117.847 203.527 -173.885 8 
325.752 396.106 -92.4544 8 
262.73 366.14 -132.1 8 
7.84067 58.0045 -205.717 8 
624.702 445.15 -97.9083 8 
77.729 134.673 -178.109 8 
175.158 272.976 -108.829 8 
395.704 459.264 -166.705 8 
95.1224 148.554 -98.1932 8 
38.4924 43.162 -178.103 8 
131.479 211.269 -201.063 8 
174.858 310.249 -152.489 8 
87.3943 150.373 -151.049 8 
81.4625 116.365 -194.422 8 
551.878 488.072 -152.118 8 
106.031 192.007 -155.053 8 
124.988 203.643 -191.852 8 
167.338 256.883 -80.642 8 
127.165 226.51 -190.293 8 
322.977 431.542 -185.684 8 
49.1828 117.057 -117.889 8 
158.626 336.921 -171.211 8 
310.872 428.005 -184.428 8 
113.323 191.334 -173.636 8 
98.4603 144.46 -182.121 8 
81.5581 131.468 -160.459 8 
-25.3231 -23.4907 -168.242 8 
-21.2322 -9.6171 -152.505 8 
324.182 400.57 -102.317 8 
95.124 172.921 -157.337 8 
402.317 446.934 -183.233 8 
130.544 221.471 -148.886 8 
-15.1943 -34.7622 -179.454 8 
-12.1947 11.9319 -209.888 8 
142.313 228.104 -113.94 8 
18.7176 22.2637 -184.332 8 
278.933 397.749 -153.741 8 
282.404 375.415 -121.555 8 
340.126 426.62 -125.825 8 
470.643 494.33 -146.509 8 
244.398 342.458 -95.8854 8 
381.748 468.168 -114.226 8 
487.967 482.553 -191.082 8 
146.904 281.95 -175.272 8 
-21.7285 -40.1862 -187.098 8 
370.277 440.01 -187.907 8 
67.0991 124.218 -164.662 8 
448.407 498.219 -132.116 8 
225.955 391.479 -165.939 8 
183.851 287.628 -142.026 8 
74.3504 133.562 -143.288 8 
502.386 493.302 -156.296 8 
27.3379 29.9242 -175.751 8 
131.449 222.542 -201.337 8 
176.26 277.916 -131.122 8 
144.404 215.521 -90.8298 8 
115.64 158.202 -194.719 8 
239.231 393.513 -164.04 8 
29.0246 83.5295 -125.936 8 
230.482 331.684 -113.846 8 
162.801 311.023 -163.708 8 
51.3261 83.8118 -163.692 8 
514.542 505.117 -139.14 8 
127.266 237.569 -168.85 8 
274.158 378.573 -142.039 8 
158.38 294.956 -159.809 8 
298.901 389.085 -126.072 8 
328.23 425.466 -149.852 8 
296.388 410.005 -153.528 8 
89.2092 142.226 -107.528 8 
132.882 237.573 -152.07 8 
614.229 451.596 -114.264 8 
130.304 215.413 -125.863 8 
308.11 425.947 -167.485 8 
124.321 221.427 -179.959 8 
257.586 357.919 -125.942 8 
154.839 251.654 -131.972 8 
436.593 484.894 -143.705 8 
111.698 203.883 -154.754 8 
258.459 351.489 -90.5966 8 
53.7946 105.898 -182.661 8 
171.444 271.106 -125.277 8 
241.23 404.556 -176.822 8 
568.486 491.21 -137.718 8 
388.201 445.892 -181.79 8 
312.442 381.313 -92.1518 8 
341.108 424.799 -108.115 8 
111 157.366 -108.203 8 
445.943 464.548 -182.607 8 
369.313 451.101 -125.962 8 
116.125 186.421 -181.953 8 
549.459 501.25 -135.864 8 
46.1531 96.3419 -150.097 8 
223.793 308.548 -92.8329 8 
196.449 371.691 -156.531 8 
296.051 374.439 -99.4113 8 
91.1612 159.287 -147.981 8 
77.9634 148.473 -162.647 8 
393.51 463.545 -144.521 8 
434.842 494.033 -126.435 8 
187.792 278.01 -80.4303 8 
-10.3271 2.23703 -208.746 8 
153.4 240.747 -118.65 8 
149.172 269.589 -156.11 8 
36.0002 52.2651 -171.622 8 
572.006 482.822 -147.117 8 
325.092 411.18 -121.141 8 
-25.3174 -17.9002 -207.905 8 
268.916 413.871 -172.307 8 
162.743 257.202 -114.235 8 
562.8 498.316 -132.175 8 
412.552 467.263 -162.075 8 
36.8573 99.3239 -135.374 8 
150.544 299.274 -174.74 8 
115.538 206.754 -164.856 8 
352.599 437.737 -137.889 8 
2.21314 41.8313 -199.701 8 
184.593 347.457 -154.675 8 
418.532 486.002 -126.061 8 
216.284 298.184 -90.2359 8 
-4.1598 6.97844 -164.459 8 
166.289 275.802 -144.376 8 
202.456 341.417 -148.477 8 
92.8732 150.319 -175.78 8 
65.0032 123.924 -119.82 8 
-10.3746 4.41581 -152.518 8 
262.996 358.501 -108.133 8 
274.724 360.037 -89.9047 8 
122.972 191.603 -192.218 8 
337.863 428.258 -144.737 8 
86.8131 128.106 -182.341 8 
417.237 446.194 -188.432 8 
240.484 335.488 -80.4103 8 
567.724 501.171 -122.574 8 
308.867 403.898 -135.803 8 
298.166 378.893 -107.805 8 
146.776 241.019 -138.473 8 
227.668 334.822 -132.912 8 
275.087 406.43 -163.078 8 
472.287 480.603 -180.228 8 
327.324 408.02 -107.642 8 
450.902 476.997 -171.55 8 
390.768 471.163 -123.927 8 
192.871 321.259 -146.6 8 
460.43 479.131 -173.955 8 
140.032 182.021 -105.252 8 
80.4905 109.782 -207.202 8 
325.383 416.819 -134.543 8 
30.263 51.9187 -138.402 8 
141.747 269.208 -180.103 8 
139.162 231.16 -132.92 8 
156.88 237.438 -103.161 8 
83.3784 136.729 -125.886 8 
26.7316 48.8585 -163.327 8 
502.382 508.843 -136.865 8 
56.584 109.244 -150.918 8 
421.66 452.617 -182.645 8 
106.491 185.678 -168.449 8 
288.888 417.013 -164.356 8 
407.797 471.603 -143.124 8 
265.095 357.014 -97.1698 8 
121.741 206.629 -140.677 8 
-4.42537 18.1284 -163.764 8 
347.816 430.356 -101.957 8 
118.229 173.475 -191.879 8 
97.0422 159.135 -134.576 8 
109.872 158.208 -117.487 8 
133.33 210.125 -116.43 8 
60.0441 106.492 -159.885 8 
442.412 475.001 -168.146 8 
129.584 238.62 -191.951 8 
122.289 210.121 -181.124 8 
223.771 320.37 -105.284 8 
128.41 203.555 -125.615 8 
40.026 60.1727 -168.836 8 
424.618 473.522 -155.055 8 
299.839 400.049 -138.956 8 
187.845 284.497 -123.49 8 
-7.61886 -12.5436 -167.888 8 
49.5713 98.6877 -187.254 8 
174.622 329.21 -158.187 8 
73.8324 128.552 -121.726 8 
490.755 489.811 -161.4 8 
400.409 480.363 -114.221 8 
585.881 477.983 -139.006 8 
61.433 121.902 -175.17 8 
416.991 458.231 -176.342 8 
421.317 482.833 -135.386 8 
250.784 346.399 -90.2861 8 
49.8745 92.1873 -158.614 8 
577.895 494.896 -121.529 8 
175.885 295.857 -147.047 8 
202.766 287.474 -89.635 8 
264.597 381.363 -146.252 8 
442.429 479.67 -155.2 8 
283.941 386.385 -142.811 8 
317.32 412.406 -138.213 8 
-29.4827 -7.70365 -217.698 8 
16.0478 0.288851 -181.483 8 
24.6548 75.0426 -214.937 8 
145.93 259.948 -153.592 8 
352.532 443.684 -174.014 8 
558.843 482.25 -158.334 8 
366.775 447.174 -143.916 8 
55.9945 79.6729 -171.548 8 
190.72 329.651 -149.261 8 
64.451 108.437 -197.77 8 
315.283 421.759 -154.161 8 
450.663 458.958 -189.057 8 
207.066 312.913 -131.538 8 
-5.42877 21.2603 -148.062 8 
336.778 418.548 -92.5762 8 
539.348 492.751 -150.161 8 
151.073 243.892 -127.886 8 
387.885 457.687 -162.528 8 
540.326 502.483 -137.531 8 
239.357 346.284 -133.204 8 
525.774 501.797 -142.099 8 
210.895 338.941 -146.675 8 
164.923 251.51 -96.0319 8 
151.682 230.625 -93.7676 8 
229.968 332.117 -124.68 8 
138.376 263.261 -186.068 8 
484.721 496.552 -148.939 8 
232.039 323.467 -89.958 8 
475.995 506.313 -134.651 8 
458.292 500.198 -134.481 8 
-15.2922 -5.32967 -208.513 8 
22.3906 41.1643 -162.078 8 
136.697 245.851 -155.181 8 
280.304 367.282 -101.549 8 
144.536 197.743 -96.3448 8 
382.427 450.558 -174.242 8 
164.04 289.475 -153.112 8 
158.766 245.713 -113.58 8 
203.558 291.957 -102.586 8 
121.572 218.74 -152.672 8 
170.262 265.269 -80.4903 8 
14.5476 -16.7159 -188.305 8 
115.265 177.831 -128.013 8 
94.9985 118.493 -196.529 8 
128.69 217.041 -138.077 8 
466.393 484.543 -162.07 8 
69.5066 121.367 -181.3 8 
2.74516 19.8669 -157.636 8 
29.9919 46.6904 -179.316 8 
110.25 181.389 -153.122 8 
62.8432 103.401 -205.579 8 
291.682 367.202 -89.5678 8 
271.671 368.621 -123.257 8 
126.832 176.993 -116.695 8 
620.047 453.019 -100.89 8 
33.9194 65.483 -143.891 8 
379.845 458.372 -134.33 8 
218.432 367.993 -153.153 8 
248.252 380.075 -152.995 8 
140.494 223.295 -106.625 8 
66.8799 123.563 -149.382 8 
543.982 483.27 -166.041 8 
37.2684 92.9428 -141.344 8 
163.744 254.188 -106.084 8 
406.372 456.589 -174.786 8 
74.2255 132.707 -165.045 8 
270.246 363.491 -108.577 8 
250.502 365.779 -143.229 8 
46.3422 89.1586 -214.39 8 
51.2151 115.158 -126.482 8 
141.265 263.866 -167.547 8 
-29.292 -34.3432 -186.372 8 
103.773 176.32 -170.561 8 
262.384 389.765 -154.819 8 
104.789 179.887 -144.167 8 
156.473 286.768 -157.64 8 
19.0133 40.0578 -148.455 8 
390.893 465.152 -136.098 8 
163.573 242.719 -92.7237 8 
34.3559 35.5699 -178.505 8 
102.533 152.99 -97.6332 8 
287.989 381.686 -127.018 8 
158.395 271.333 -147.595 8 
110.705 186.782 -136.45 8 
47.4746 65.178 -172.387 8 
13.1597 39.0186 -136.085 8 
102.955 154.627 -121.182 8 
62.3555 97.0681 -163.935 8 
307.184 392.981 -122.363 8 
121.852 221.684 -161.732 8 
478.522 484.739 -173.885 8 
352.922 436.879 -125.955 8 
299.911 405.6 -146.386 8 
468.01 488.973 -153.619 8 
208.576 329.605 -143.541 8 
220.382 359.511 -149.794 8 
132.676 177.552 -110.041 8 
116.714 198.355 -136.496 8 
125.627 185.193 -201.342 8 
312.589 393.679 -115.195 8 
377.378 454.098 -143.737 8 
577.683 488.773 -129.513 8 
253.196 404.888 -170.471 8 
445.578 470.812 -176.828 8 
208.529 383.621 -162.421 8 
163.586 321.718 -164.661 8 
152.608 253.499 -147.685 8 
92.2705 157.002 -159.208 8 
23.2235 17.1214 -178.938 8 
242.603 343.656 -119.806 8 
110.182 169.171 -129.31 8 
285.188 397.579 -147.978 8 
34.3648 66.5405 -156.455 8 
84.9076 147.949 -139.715 8 
129.67 202.963 -201.193 8 
49.2996 92.9396 -203.462 8 
50.0751 103.775 -145.644 8 
57.2513 122.12 -114.766 8 
36.6538 110.701 -117.676 8 
190.415 305.584 -142.34 8 
190.495 282.95 -102.076 8 
146.397 289.289 -179.487 8 
508.39 490.789 -161.687 8 
319.103 405.165 -122.161 8 
140.898 191.54 -105.84 8 
42.081 105.795 -131.103 8 
467.247 507.761 -129.987 8 
215.753 322.425 -132.639 8 
201.271 300.753 -124.813 8 
145.108 273.888 -173.645 8 
111.279 137.569 -193.259 8 
257.689 364.366 -138.59 8 
95.835 166.894 -144.184 8 
29.5271 95.2743 -125.774 8 
147.363 234.971 -119.485 8 
38.82 77.8476 -156.159 8 
230.854 374.163 -152.968 8 
429.582 463.551 -175.978 8 
61.9218 110.177 -188.59 8 
430.548 486.101 -138.023 8 
96.0443 136.637 -183.917 8 
199.733 302.377 -141.422 8 
296.375 416.173 -159.198 8 
304.875 413.069 -150.322 8 
335.292 424.472 -132.302 8 
583.654 476.779 -147.524 8 
184.501 365.392 -155.233 8 
-13.7346 29.0174 -202.853 8 
286.931 421.61 -172.151 8 
232.176 359.988 -148.125 8 
436.529 450.814 -189.65 8 
167.906 310.925 -157.15 8 
406.575 479.737 -126.014 8 
246.46 352.338 -132.48 8 
260.194 350.08 -82.61 8 
123.619 197.96 -130.263 8 
329.32 413.332 -114.193 8 
449.081 489.826 -142.457 8 
262.965 400.702 -162.905 8 
11.5726 28.3077 -155.173 8 
29.9255 71.7538 -125.805 8 
110.852 174.135 -181.093 8 
135.777 227.775 -147.981 8 
423.278 469.998 -163.818 8 
99.4061 162.161 -175.197 8 
210.093 298.166 -102.434 8 
380.349 463.819 -121.043 8 
123.997 203.747 -148.422 8 
502.306 487.2 -174.052 8 
71.7137 111.635 -165.223 8 
313.879 404.442 -129.382 8 
160.402 263.74 -144.135 8 
171.64 347.143 -160.922 8 
117.186 179.763 -186.501 8 
370.515 450.49 -167.939 8 
405.606 475.329 -132.774 8 
129.882 185.765 -119.252 8 
29.02 53.0218 -154.126 8 
23.8688 39.9564 -181.239 8 
115.684 188.177 -151.874 8 
484.561 491.397 -155.55 8 
-31.537 -24.7607 -173.739 8 
107.709 161.129 -184.833 8 
352.551 437.649 -148.559 8 
357.695 445.861 -168.189 8 
125.659 232.297 -161.87 8 
436.359 461.912 -180.22 8 
221.68 395.092 -171.754 8 
322.215 430.581 -169.272 8 
-14.7967 -10.8525 -157.199 8 
218.481 312.951 -106.879 8 
35.9831 82.8304 -206.445 8 
232.57 329.979 -95.9172 8 
82.7005 123.36 -190.733 8 
172.353 270.041 -101.96 8 
88.8076 165.623 -166.993 8 
59.9241 117.59 -137.623 8 
200.495 295.598 -118.794 8 
341.546 430.066 -137.757 8 
177.737 317.89 -153.634 8 
90.1138 149.044 -133.829 8 
190.608 294.225 -131.585 8 
-7.37876 29.2991 -198.133 8 
381.775 435.073 -198.135 8 
490.393 486.589 -173.742 8 
550.303 483.94 -161.344 8 
386.948 475.64 -110.097 8 
114.579 196.973 -152.234 8 
118.501 162.782 -102.005 8 
341.036 435.904 -191.678 8 
429.816 469.574 -168.985 8 
269.25 388.701 -150.552 8 
82.4501 137.618 -155.698 8 
203.254 310.676 -138.685 8 
90.3923 166.744 -158.151 8 
39.8188 84.8517 -214.233 8 
4.66639 28.9677 -143.848 8 
145.218 244.517 -146.734 8 
226.133 341.998 -141.756 8 
-19.4395 -29.7646 -174.632 8 
137.57 227.311 -126.353 8 
376.574 461.613 -113.966 8 
584.707 483.75 -123.967 8 
25.2779 100.81 -118.594 8 
453.657 481.879 -156.857 8 
87.4763 139.109 -119.79 8 
74.3167 121.894 -158.298 8 
-10.8851 -7.51956 -172.745 8 
79.7759 140.381 -141.068 8 
548.179 479.044 -170.935 8 
181.887 278.387 -113.382 8 
550.943 493.088 -145.059 8 
24.0525 45.6186 -126.033 8 
-9.34951 22.16 -202.13 8 
177.473 352.008 -159.785 8 
507.972 485.856 -179.433 8 
232.295 347.7 -141.862 8 
608.134 460.615 -112.305 8 
435.731 476.146 -156.453 8 
363.278 445.289 -131.976 8 
15.5119 30.034 -161.494 8 
168.617 267.826 -114.259 8 
502.356 497.481 -149.633 8 
187.188 339.278 -152.555 8 
526.388 487.277 -168.174 8 
364.4 444.408 -180.007 8 
137.441 251.443 -162.047 8 
194.573 289.819 -119.369 8 
400.481 462.795 -161.98 8 
100.37 173.719 -143.99 8 
131.443 221.413 -132.041 8 
172.075 335.59 -161.337 8 
470.374 470.283 -191.356 8 
129.029 240.458 -178.92 8 
27.7763 49.0866 -131.867 8 
454.914 467.22 -185.328 8 
430.361 492.53 -120.574 8 
202.619 323.525 -143.62 8 
490.188 505.71 -139.858 8 
32.1764 54.688 -125.578 8 
478.275 493.296 -150.968 8 
70.5269 125.937 -131.979 8 
133.751 191.711 -116.842 8 
89.4524 142.844 -125.976 8 
45.8681 78.6899 -163.385 8 
449.055 502.07 -125.734 8 
371.589 455.211 -113.803 8 
31.3462 66.967 -131.441 8 
196.618 378.285 -160.009 8 
-33.1356 -23.6062 -206.837 8 
363.086 445.14 -120.034 8 
598.646 473.536 -113.969 8 
351.204 433.285 -107.896 8 
238.581 383.636 -156.72 8 
118.816 215.019 -163.013 8 
77.6178 135.661 -106.867 8 
186.705 310.684 -146.265 8 
328.991 434.152 -182.11 8 
520.594 485.365 -174.824 8 
232.518 394.521 -167.587 8 
519.451 513.132 -130.02 8 
300.374 422.747 -164.702 8 
370.697 448.988 -149.927 8 
253.119 351.045 -107.999 8 
352.397 436.672 -191.836 8 
165.134 264.387 -119.797 8 
137.599 209.331 -107.986 8 
220.283 384.153 -160.469 8 
359.839 445.268 -157.724 8 
459.601 482.059 -163.452 8 
101.756 131.218 -189.88 8 
157.284 329.395 -170.498 8 
148.636 280.147 -168.384 8 
280.993 370.065 -108.272 8 
233.936 334.366 -108.042 8 
88.2726 144 -175.269 8 
69.3303 103.726 -210.458 8 
140.412 270.225 -187.151 8 
71.7666 136.074 -172.329 8 
298.883 382.508 -114.013 8 
220.972 329.185 -138.377 8 
400.746 441.457 -189.504 8 
275.427 418.023 -173.765 8 
221.209 346.362 -145.751 8 
202.293 365.845 -153.785 8 
240.051 339.886 -107.902 8 
124.425 174.263 -200.919 8 
382.629 442.583 -185.448 8 
80.9564 133.727 -119.862 8 
490.257 500.016 -146.024 8 
143.66 286.825 -189.47 8 
514.414 496.994 -149.896 8 
-0.23796 3.05423 -170.929 8 
550.106 507.345 -127.167 8 
-29.3521 -13.9314 -212.22 8 
360.111 442.357 -107.798 8 
100.262 179.861 -155.922 8 
394.408 443.655 -185.943 8 
218.801 297.297 -80.7453 8 
27.1254 49.4101 -144.236 8 
364.38 437.001 -191.31 8 
321.525 424.906 -155.265 8 
100.048 167.995 -150.386 8 
138.067 257.206 -167.408 8 
213.128 319.035 -138.244 8 
336.963 423.223 -120.513 8 
520.274 507.76 -135.921 8 
24.5928 35.4746 -172.405 8 
97.7021 146.607 -113.488 8 
496.472 514.142 -132.152 8 
196.301 283.116 -84.1601 8 
640.585 426.972 -88.4247 8 
207.592 289.409 -83.3663 8 
158.634 252.977 -143.068 8 
532.472 494.061 -150.127 8 
411.755 475.43 -138.829 8 
88.027 118.233 -196.266 8 
156.868 317.006 -169.919 8 
290.341 392.066 -143.028 8 
121.205 220.19 -168.488 8 
64.342 121.107 -132.163 8 
183.488 277.5 -90.0064 8 
257.983 375.814 -145.801 8 
178.622 335.309 -156.861 8 
262.523 412.058 -174.17 8 
334.435 429.37 -150.62 8 
364.316 444.857 -149.927 8 
42.0764 87.0629 -199.729 8 
118.891 209.227 -151.813 8 
532.661 483.579 -171.629 8 
502.573 489.02 -166.154 8 
453.977 493.673 -139.569 8 
-15.0445 -24.3398 -202.552 8 
327.531 402.02 -95.4136 8 
218.436 319.831 -119.587 8 
267.633 372.96 -138.054 8 
30.2906 52.9464 -167.489 8 
107.907 143.238 -190.085 8 
478.526 480.228 -186.24 8 
249.936 348.814 -113.588 8 
92.511 150.944 -156.149 8 
456.019 489.067 -147.562 8 
-24.0769 -1.09591 -215.853 8 
484.904 508.14 -136.365 8 
142.722 209.474 -95.6966 8 
-11.9043 19.4999 -146.305 8 
192.088 353.219 -152.381 8 
520.055 489.023 -166.042 8 
31.1681 59.0331 -119.203 8 
145.758 228.564 -105.286 8 
350.413 433.974 -118.992 8 
345.678 437.495 -153.271 8 
340.791 438.901 -180.24 8 
520.504 499.591 -145.596 8 
368.137 451.84 -108.279 8 
104.208 152.086 -113.112 8 
-3.47473 34.9489 -197.417 8 
33.5939 83.5184 -137.67 8 
38.8413 83.5953 -149.935 8 
320.352 397.7 -106.984 8 
135.017 215.967 -113.658 8 
508.061 495.158 -153.303 8 
622.745 440.044 -105.704 8 
52.1356 96.7274 -197.404 8 
239.496 341.21 -125.157 8 
133.757 248.228 -180.133 8 
406.545 468.443 -150.066 8 
304.914 377.616 -95.772 8 
471.998 499.645 -139.721 8 
72.7211 129.683 -138.167 8 
3.20334 48.1436 -202.042 8 
430.148 451.116 -187.598 8 
20.2071 44.2257 -132.673 8 
453.772 505.581 -122.746 8 
388.772 453.887 -172.2 8 
302.71 425.63 -171.229 8 
164.719 265.317 -131.983 8 
148.985 288.092 -173.583 8 
162.056 340.66 -166.913 8 
129.368 239.982 -185.446 8 
244.361 359.661 -142.601 8 
196.713 359.089 -152.245 8 
141.416 234.126 -138.3 8 
126.004 221.354 -186.438 8 
159.468 258.122 -131.876 8 
76.3648 114.487 -198.064 8 
69.0671 126.636 -144.041 8 
224.467 325.853 -119.635 8 
11.8719 38.4678 -128.48 8 
185.357 280.352 -108.222 8 
180.336 280.338 -126.65 8 
594.303 475.049 -119.85 8 
374.8 451.76 -156.798 8 
-31.3953 -32.7974 -199.733 8 
251.983 352.043 -120.115 8 
185.754 279.483 -96.4598 8 
398.652 464.047 -151.561 8 
113.761 192.083 -145.552 8 
146.223 222.2 -89.0109 8 
100.007 120.711 -193.111 8 
333.801 433.983 -193.136 8 
8.7639 18.8077 -165.825 8 
356.524 439.915 -131.111 8 
58.1839 102.531 -198.359 8 
226.841 382.148 -157.995 8 
56.8609 98.0091 -210.228 8 
178.926 281.301 -137.995 8 
322.47 429.725 -162.907 8 
77.979 135.379 -137.464 8 
192.376 285.405 -108.694 8 
346.912 441.577 -168.963 8 
214.722 299.629 -96.2728 8 
534.655 489.804 -158.775 8 
166.033 251.709 -89.7352 8 
77.7565 142.621 -171.699 8 
359.228 442.35 -137.815 8 
120.44 202.749 -133.78 8 
394.243 468.907 -132.213 8 
122.993 203.598 -185.818 8 
106.629 155 -102.04 8 
316.438 413.631 -144.458 8 
130.464 215.732 -144.021 8 
162.934 237.507 -85.6093 8 
472.494 486.226 -161.989 8 
37.0655 110.993 -111.375 8 
239.764 340.352 -114.196 8 
-10.3053 -27.839 -178.086 8 
317.027 429.461 -185.353 8 
436.546 472.674 -168.091 8 
82.527 137.595 -175.251 8 
-15.1927 -5.37255 -151.098 8 
588.904 485.187 -116.555 8 
120.038 203.402 -179.792 8 
186.697 291.549 -137.999 8 
346.615 431.688 -125.874 8 
128.569 169.796 -101.487 8 
72.0843 131.915 -177.791 8 
140.933 228.934 -144.58 8 
127.321 208.383 -195.253 8 
206.278 295.981 -106.921 8 
378.354 459.889 -125.518 8 
292.414 378.599 -113.575 8 
484.967 513.699 -131.09 8 
249.72 391.574 -159.714 8 
210.183 310.578 -120.52 8 
514.598 511.168 -133.453 8 
48.309 111.111 -130.271 8 
562.373 502.191 -126.305 8 
-25.132 -24.3764 -204.862 8 
169.839 266.283 -95.0366 8 
107.142 192.648 -164.013 8 
121.148 165.089 -107.163 8 
64.7489 125.462 -113.778 8 
145.005 292.401 -184.703 8 
36.088 64.5893 -166.172 8 
95.7119 179.992 -160.357 8 
338.728 421.382 -101.858 8 
373.551 458.775 -108.201 8 
172.506 281.508 -143.087 8 
58.5375 124.873 -107.617 8 
418.385 487.286 -119.991 8 
311.382 417.801 -151.411 8 
104.448 174.805 -136.057 8 
-5.22197 45.0666 -203.975 8 
140.509 273.516 -192.551 8 
166.252 257.553 -96.021 8 
340.67 438.948 -169.61 8 
220.518 353.429 -148.678 8 
208.398 347.459 -148.778 8 
27.7639 16.7039 -183.722 8 
135.616 222.181 -144.292 8 
135.103 251.42 -167.764 8 
76.5074 118.852 -191.702 8 
436.443 492.637 -132.232 8 
347.455 441.236 -179.67 8 
-25.6062 -17.9013 -161.814 8 
204.877 387.267 -166.547 8 
400.563 467.352 -144.026 8 
155.186 299.324 -168.379 8 
366.383 447.532 -137.772 8 
119.857 184.842 -127.54 8 
31.8024 63.4651 -126.392 8 
244.636 341.257 -83.9881 8 
196.477 335.4 -148.639 8 
88.9861 123.501 -189.947 8 
-4.94119 -1.91989 -165.664 8 
393.955 478.612 -110.449 8 
586.057 480.166 -130.308 8 
-17.2057 -0.525611 -212.167 8 
154.861 251.576 -138.097 8 
255.131 347.195 -80.7404 8 
66.8817 130.073 -166.426 8 
-19.0118 -20.1725 -165.907 8 
281.384 363.588 -91.057 8 
632.222 435.805 -93.8001 8 
489.996 485.018 -185.873 8 
90.5766 141.315 -113.409 8 
425.174 459.673 -177.654 8 
86.2316 151.707 -144.339 8 
32.9887 59.7028 -137.972 8 
364.488 431.94 -195.166 8 
568.192 479.19 -155.252 8 
102.026 149.038 -183.952 8 
60.5959 112.019 -154.554 8 
124.082 197.582 -192.065 8 
214.439 353.469 -149.168 8 
308.956 385.447 -107.024 8 
166.334 263.602 -142.85 8 
330.927 417.329 -120.305 8 
167.594 263.716 -102.045 8 
184.371 323.473 -150.271 8 
442.349 486.785 -143.932 8 
237.611 336.663 -95.8723 8 
358.447 445.509 -174.19 8 
234.161 329.139 -90.0858 8 
213.22 379.97 -159.142 8 
42.9297 82.3136 -159.526 8 
82.2723 143.185 -160.61 8 
160.913 251.355 -113.955 8 
228.67 316.281 -90.6663 8 
66.4442 123.25 -125.651 8 
132.148 215.365 -120.112 8 
99.5889 149.936 -119.418 8 
110.866 131.901 -195.282 8 
116.954 167.619 -192.569 8 
496.351 508.926 -136.935 8 
-8.67742 0.107562 -203.199 8 
405.832 481.526 -120.307 8 
370.823 448.258 -173.527 8 
256.358 360.124 -131.41 8 
184.495 353.437 -155.338 8 
34.6743 71.4513 -143.824 8 
214.406 359.646 -150.452 8 
310.925 424.636 -161.199 8 
370.667 450.782 -161.935 8 
376.268 437.352 -190.673 8 
508.546 505.29 -139.475 8 
386.957 457.802 -151.348 8 
243.693 342.907 -101.834 8 
124.012 227.487 -174.121 8 
128.462 232.727 -192.176 8 
290.992 385.695 -130.328 8 
490.34 485.94 -179.952 8 
210.948 303.474 -109.828 8 
502.376 502.601 -142.887 8 
478.53 485.876 -168.002 8 
196.615 317.503 -143.811 8 
275.064 400.08 -157.676 8 
412.791 460.618 -172.806 8 
484.463 485.83 -173.964 8 
100.773 173.672 -155.52 8 
500.961 483.977 -189.116 8 
208.42 353.562 -149.7 8 
436.303 481.002 -150.017 8 
327.332 421.311 -144.442 8 
39.2808 48.3623 -175.275 8 
256.566 389.658 -156.136 8 
102.09 191.237 -159.465 8 
171.616 269.618 -142.182 8 
20.7492 0.444181 -185.702 8 
400.551 455.611 -173.991 8 
190.421 365.606 -154.612 8 
151.941 294.731 -171.151 8 
-2.36071 12.4218 -162.847 8 
129.784 227.346 -198.239 8 
163.214 303.464 -158.497 8 
202.599 375.712 -158.152 8 
202.503 347.595 -149.441 8 
129.229 209.583 -125.628 8 
140.486 209.368 -101.188 8 
92.5327 145.976 -102.858 8 
161.911 257.734 -120.075 8 
335.491 418.981 -108.157 8 
502.393 514.144 -131.96 8 
-2.08389 -6.66804 -172.606 8 
514.312 490.755 -161.688 8 
521.044 494.42 -152.381 8 
343.29 428.825 -121.343 8 
442.892 496.213 -131.407 8 
20.5838 6.59348 -181.945 8 
168.587 352.141 -161.719 8 
370.462 444.946 -179.847 8 
555.877 489.468 -147.997 8 
156.387 231.777 -85.6053 8 
107.141 200.702 -159.244 8 
151.1 306.101 -175.367 8 
177.625 323.769 -154.169 8 
23.5687 41.442 -167.853 8 
436.181 475.233 -162.447 8 
328.817 407.623 -101.955 8 
466.723 478.718 -179.777 8 
196.477 347.51 -150.647 8 
376.589 449.388 -173.9 8 
184.479 359.519 -154.812 8 
130.266 227.801 -150.046 8 
360.041 441.357 -98.4805 8 
127.317 232.171 -185.667 8 
406.406 450.375 -180.554 8 
196.426 365.597 -154.019 8 
244.543 341.93 -90.0367 8 
184.385 299.608 -143.178 8 
142.253 197.499 -101.744 8 
436.941 495.9 -120.896 8 
591.345 474.403 -138.667 8 
27.2071 48.6836 -150.349 8 
258.493 357.536 -120.169 8 
158.29 241.477 -107.157 8 
58.761 118.316 -131.933 8 
400.602 478.919 -119.991 8 
261.684 414.783 -179.279 8 
490.385 487.62 -167.977 8 
388.47 437.962 -190.765 8 
111.868 149.652 -192.475 8 
125.426 227.665 -180.062 8 
340.858 425.23 -113.938 8 
436.519 455.676 -185.92 8 
129.274 215.198 -197.344 8 
30.7266 83.4235 -131.52 8 
128.642 216.328 -131.432 8 
82.7586 131.239 -179.546 8 
-7.49702 11.502 -204.3 8 
57.7905 114.22 -144.203 8 
376.522 442.222 -185.357 8 
118.781 203.435 -151.199 8 
369.942 450.655 -132.092 8 
514.739 484.604 -179.508 8 
202.506 359.421 -151.799 8 
153.457 311.963 -173.202 8 
352.735 441.115 -184.033 8 
-17.8351 -13.7641 -205.699 8 
76.8251 137.194 -162.425 8 
122.709 221.54 -173.933 8 
368.946 451.232 -120.168 8 
496.386 497.343 -149.596 8 
268.516 401.78 -161.646 8 
467.074 495.909 -142.237 8 
214.461 371.579 -155.355 8 
442.946 483.974 -149.001 8 
406.353 445.069 -186.934 8 
95.235 130.987 -184.854 8 
-0.171268 28.4132 -138.482 8 
32.577 65.4694 -137.959 8 
262.583 359.042 -113.872 8 
143.225 274.775 -179.701 8 
418.53 473.873 -149.833 8 
430.154 475.112 -155.366 8 
562.136 490.554 -143.189 8 
28.9333 89.5447 -126.055 8 
42.6872 99.4226 -142.048 8 
442.846 477.774 -161.761 8 
166.778 341.508 -163.075 8 
269.413 357.883 -90.4796 8 
508.383 488.147 -169.076 8 
268.329 407.917 -167.196 8 
35.7073 77.3946 -144.026 8 
47.1378 91.2031 -198.426 8 
202.064 288.788 -96.3866 8 
226.547 359.433 -149.147 8 
29.3764 77.469 -126.051 8 
268.522 377.644 -142.671 8 
244.854 394.43 -163.32 8 
27.926 83.7365 -120.305 8 
244.614 371.467 -149.646 8 
128.034 222.015 -193.753 8 
219.991 311.527 -101.531 8 
83.7223 154.049 -169.588 8 
136.433 257.918 -185.319 8 
32.5192 30.4076 -180.193 8 
280.39 407.849 -161.424 8 
240.553 399.339 -169.934 8 
212.764 325.07 -140.893 8 
141.212 228.972 -119.495 8 
22.2725 24.2092 -175.184 8 
178.099 287.632 -142.579 8 
65.4968 118.775 -165.434 8 
232.608 365.393 -149.96 8 
386.814 434.716 -195.442 8 
269.293 364.161 -114.18 8 
89.1096 144.875 -98.4068 8 
252.616 398.784 -164.655 8 
274.943 413.167 -168.658 8 
-18.3557 -14.7771 -159.484 8 
16.9384 17.7443 -175.437 8 
114.854 196.746 -172.633 8 
58.3911 121.367 -120.313 8 
63.8526 120.168 -143.962 8 
340.724 432.954 -196.557 8 
94.2604 155.73 -174.6 8 
250.639 346.847 -95.9752 8 
190.753 282.227 -96.2937 8 
172.836 299.209 -150.513 8 
340.554 437.937 -185.857 8 
125.152 215.777 -185.607 8 
-6.70631 -20.9488 -176.898 8 
314.13 386.169 -99.9238 8 
152.127 236.276 -112.2 8 
461.256 472.224 -184.509 8 
85.0971 146.762 -154.804 8 
47.27 118.428 -108.605 8 
26.9647 95.6209 -120.203 8 
4.55452 53.5686 -204.347 8 
335.231 436.52 -169.832 8 
125.498 232.963 -174.114 8 
407.17 465.701 -161.208 8 
261.288 355.404 -101.047 8 
524.972 492.587 -156.022 8 
382.635 455.678 -161.907 8 
132.055 220.767 -126.348 8 
13.0797 -30.6015 -190.642 8 
580.683 479.879 -143.847 8 
538.593 484.116 -167.51 8 
34.1868 41.7246 -174.749 8 
-7.67982 5.83334 -203.932 8 
496.376 490.25 -161.62 8 
220.467 391.329 -167.241 8 
171.1 306.178 -153.555 8 
-25.3459 -42.1831 -190.935 8 
14.479 24.8954 -168.561 8 
100.127 150.916 -102.29 8 
-33.0627 -26.4291 -178.902 8 
557.57 499.86 -133.591 8 
214.662 335.669 -143.583 8 
96.9816 165.675 -171.525 8 
413.46 483.722 -125.175 8 
116.967 191.744 -180.327 8 
76.8046 130.851 -125.914 8 
226.844 335.278 -138.452 8 
33.5219 95.5579 -132.42 8 
165.889 335.47 -165.795 8 
59.017 101.064 -160.88 8 
170.447 271.442 -130.786 8 
184.706 281.491 -119.952 8 
102.506 157.11 -126.185 8 
297.459 391.138 -131.081 8 
228.42 322.771 -97.1246 8 
473.1 478.102 -185.166 8 
113.795 159.617 -101.795 8 
502.412 486.133 -179.896 8 
479.033 483.624 -179.522 8 
145.748 266.126 -158.842 8 
129.158 234.113 -154.381 8 
138.346 197.539 -109.087 8 
32.5318 103.972 -121.211 8 
28.9227 36.0383 -179.69 8 
151.665 316.597 -176.892 8 
79.1213 139.214 -98.5685 8 
136.716 221.255 -114.128 8 
352.311 432.702 -195.822 8 
60.8829 120.64 -169.771 8 
333.799 413.625 -96.3495 8 
190.69 335.509 -150.428 8 
142.342 215.546 -95.9962 8 
134.329 217.515 -147.6 8 
143.431 185.465 -102.513 8 
568.917 486.381 -144.183 8 
70.9056 119.052 -161.625 8 
263.17 354.409 -90.3489 8 
256.354 408.437 -173.335 8 
219.891 305.775 -95.6343 8 
165.269 257.563 -101.959 8 
119.92 191.339 -185.211 8 
160.784 239.245 -96.0145 8 
454.457 479.328 -168 8 
209.423 292.17 -90.2275 8 
106.552 185.399 -154.057 8 
262.94 394.534 -157.566 8 
275.845 393.865 -151.302 8 
318.774 393.678 -103.536 8 
57.1239 84.4156 -168.944 8 
166.963 257.524 -90.0701 8 
133.24 252.087 -196.684 8 
131.412 197.181 -120.358 8 
233.656 340.642 -132.833 8 
181.242 284.91 -134.242 8 
284.808 373.803 -113.507 8 
178.634 347.439 -156.974 8 
321.327 431.069 -180.014 8 
172.279 341.705 -160.728 8 
346.479 436.378 -191.879 8 
380.727 468.786 -108.891 8 
156.086 274.496 -151.402 8 
496.378 486.201 -179.958 8 
28.3087 72.3739 -116.706 8 
148.222 257.75 -149.153 8 
400.788 473.036 -131.622 8 
136.752 263.237 -195.036 8 
-11.8097 -13.3831 -200.468 8 
361.213 446.824 -162.761 8 
70.9145 112.865 -197.422 8 
257.858 351.825 -96.1143 8 
496.481 487.042 -173.951 8 
82.5397 137.696 -108.003 8 
82.8543 143.525 -173.385 8 
143.574 203.668 -96.2677 8 
167.828 293.054 -151.537 8 
93.8572 144.982 -108.185 8 
40.5945 89.2262 -149.672 8 
187.678 332.145 -153.472 8 
228.286 328.168 -108.127 8 
142.107 275.794 -185.799 8 
596.521 470.905 -123.447 8 
146.195 235.877 -144.644 8 
83.0366 155.245 -161.077 8 
286.656 365.176 -89.9831 8 
472.792 508.94 -131.149 8 
104.22 121.447 -196.633 8 
166.328 270.136 -143.241 8 
588.664 481.526 -121.01 8 
323.878 412.177 -126.523 8 
10.207 29.6277 -150.105 8 
66.2877 117.948 -183.987 8 
282.261 393.446 -146.077 8 
454.378 481.063 -162.155 8 
119.89 209.378 -173.891 8 
20.347 43.6795 -144.682 8 
286.783 389.253 -138.004 8 
110.848 192.219 -168.925 8 
298.3 384.656 -119.575 8 
174.921 273.251 -114.21 8 
126.372 197.214 -197.613 8 
364.398 441.845 -184.747 8 
189.444 299.974 -141.369 8 
-19.2693 -18.8869 -204.865 8 
141.138 252.73 -154.907 8 
454.944 502.14 -130.747 8 
448.457 481.051 -155.78 8 
-11.4381 -0.593547 -154.646 8 
163.447 316.355 -164.489 8 
136.439 233.534 -148.36 8 
82.5731 112.871 -203.34 8 
220.984 323.441 -125.326 8 
28.3404 47.8589 -168.346 8 
101.278 161.401 -132.191 8 
123.128 215.34 -180.241 8 
66.0013 118.576 -155.132 8 
82.4324 137.666 -131.271 8 
-1.83203 25.0045 -144.442 8 
231.889 317.37 -84.3413 8 
276.021 363.501 -96.5027 8 
51.3663 101.989 -150.516 8 
74.4379 133.371 -150.756 8 
429.877 481.525 -144.971 8 
123.005 169.501 -113.279 8 
213.905 330.229 -141.668 8 
52.4115 119.984 -114.042 8 
334.95 436.515 -180.869 8 
406.68 473.29 -137.589 8 
160.421 257.474 -126.232 8 
82.3743 125.058 -185.676 8 
173.151 269.553 -84.0115 8 
-15.4416 5.76351 -213.653 8 
-11.068 18.7785 -205.864 8 
201.452 294.392 -113.703 8 
82.752 149.457 -160.562 8 
356.901 439.4 -119.21 8 
16.2361 35.6699 -149.563 8 
172.805 317.424 -155.542 8 
249.255 354.867 -141.385 8 
8.11639 32.4073 -140.138 8 
66.4198 123.253 -177.426 8 
484.878 483.69 -185.51 8 
276.839 381.27 -138.35 8 
322.357 431.126 -190.926 8 
293.604 406.199 -151.125 8 
330.232 412.389 -108.31 8 
141.558 221.739 -101.682 8 
78.859 149.566 -167.745 8 
425.707 477.545 -148.628 8 
32.1824 54.3906 -131.673 8 
76.8538 125.202 -161.547 8 
178.735 359.434 -156.186 8 
150.149 231.69 -102.94 8 
106.847 131.123 -191.287 8 
-5.63221 -6.9814 -167.005 8 
53.586 102.163 -186.388 8 
220.39 341.549 -143.739 8 
93.0315 162.423 -144.135 8 
544.468 491.541 -149.918 8 
496.392 492.949 -156.021 8 
-10.33 -36.7637 -179.624 8 
130.784 244.972 -174.744 8 
52.7278 89.8897 -162.385 8 
472.157 487.337 -156.535 8 
437.219 489.961 -136.687 8 
207.849 311.734 -141.001 8 
345.841 433.088 -137.71 8 
70.7196 131.04 -107.869 8 
125.265 209.147 -143.644 8 
341.847 429.823 -132.521 8 
36.2204 71.4362 -156.133 8 
41.738 111.451 -118.721 8 
52.5265 113.677 -132.025 8 
297 397.588 -143.383 8 
472.514 484.524 -167.967 8 
76.6447 137.458 -173.627 8 
316.703 419.19 -149.829 8 
418.3 469.069 -162.507 8 
111.445 185.779 -174.227 8 
-30.5905 -22.4501 -169.147 8 
113.68 173.172 -185.381 8 
292.496 371.22 -95.9966 8 
77.0432 112.591 -202.88 8 
195.583 289.151 -113.589 8 
525.752 505.022 -137.997 8 
484.816 489.405 -160.366 8 
119.873 172.832 -120.837 8 
113.694 161.426 -191.116 8 
565.566 494.597 -134.556 8 
-9.31402 5.65361 -157.465 8 
76.4179 131.657 -113.539 8 
232.505 353.58 -144.391 8 
76.273 126.547 -180.292 8 
167.843 281.071 -145.351 8 
34.7436 89.6556 -137.983 8 
-30.7526 -17.5706 -162.478 8 
590.551 477.873 -124.312 8 
99.5428 126.994 -187.811 8 
191.309 347.207 -152.157 8 
34.3151 65.4752 -149.072 8 
305.274 406.655 -144.582 8 
37.0391 76.7152 -149.506 8 
178.422 274.832 -96.0359 8 
87.8762 148.472 -159.978 8 
382.578 455.372 -156.65 8 
237.221 330.072 -83.6636 8 
171.628 270.968 -120.097 8 
412.12 445.608 -187.849 8 
183.375 336.084 -153.995 8 
173.587 275.016 -137.763 8 
246.121 405.644 -175.539 8 
225.866 373.074 -153.785 8 
89.7465 161.357 -158.032 8 
131.74 246.527 -191.608 8 
130.106 238.395 -197.087 8 
144.904 282.041 -180.499 8 
561.637 478.288 -160.116 8 
461.014 489.897 -148.567 8 
169.228 356.05 -157.657 8 
208.383 371.676 -155.804 8 
34.8503 47.2791 -172.863 8 
400.605 460.47 -167.772 8 
120.772 172.723 -196.304 8 
286.48 383.712 -131.847 8 
244.595 376.571 -152.045 8 
382.312 445.518 -181.226 8 
280.687 365.606 -95.9398 8 
151.422 285.12 -163.764 8 
478.307 487.392 -162.215 8 
81.2964 144.113 -144.272 8 
264.309 363.669 -126.328 8 
32.3291 61.1394 -157.655 8 
208.792 311.674 -126.03 8 
35.1188 59.337 -167.534 8 
424.29 450.328 -186.422 8 
544.901 504.92 -132.494 8 
117.125 192.477 -149.458 8 
195.443 306.235 -141.512 8 
293.531 412.203 -157.604 8 
424.525 479.463 -143.84 8 
347.997 435.607 -144.447 8 
125.275 191.516 -197.858 8 
110.795 192.192 -153.154 8 
226.581 347.672 -144.051 8 
33.0127 77.5384 -137.856 8 
292.524 383.936 -125.764 8 
164.11 252.36 -101.309 8 
277.544 374.815 -127.95 8 
356.918 439.171 -101.9 8 
179.372 364.507 -155.928 8 
375.652 451.447 -150.743 8 
245.388 352.837 -138.596 8 
251.16 345.906 -84.2206 8 
14.452 -4.46883 -182.442 8 
112.723 191.433 -137.082 8 
196.281 329.804 -147.919 8 
226.619 311.666 -89.8979 8 
241.184 338.662 -86.7473 8 
326.579 409.122 -113.276 8 
111.616 162.544 -119.545 8 
377.383 453.518 -161.837 8 
113.75 172.935 -126.951 8 
113.354 160.548 -113.745 8 
178.518 275.076 -102.105 8 
76.7157 143.538 -162.283 8 
256.119 402.624 -166.954 8 
207.631 305.805 -119.702 8 
81.7652 137.409 -161.17 8 
103.993 170.087 -153.847 8 
272.951 367.935 -118.37 8 
286.62 370.691 -101.909 8 
274.427 383.731 -143.508 8 
383.611 460.06 -137.627 8 
305.123 423.542 -163.039 8 
65.6764 112.349 -191.697 8 
304.285 402.047 -137.489 8 
140.814 263.988 -174.601 8 
112.738 197.553 -168.078 8 
119.941 214.808 -167.968 8 
386.849 469.726 -121.025 8 
40.9322 65.3619 -167.507 8 
307.729 398.598 -128.817 8 
320.675 389.688 -92.3203 8 
281.654 417.788 -169.503 8 
561.641 483.577 -154.312 8 
575.796 492.856 -126.569 8 
107.105 179.274 -149.757 8 
121.32 226.624 -160.728 8 
53.5622 94.9812 -160.682 8 
146.602 240.347 -132.086 8 
120.9 185.135 -190.78 8 
298.383 371.753 -91.1621 8 
582.773 482.063 -133.664 8 
51.129 96.6144 -156.502 8 
412.403 473.497 -144.026 8 
159.629 299.629 -161.292 8 
4.44906 17.9826 -162.008 8 
120.168 202.65 -143.371 8 
154.716 257.332 -145.151 8 
64.8947 107.234 -161.099 8 
394.586 460.537 -161.95 8 
63.8385 102.228 -162.661 8 
205.921 290.397 -93.3938 8 
453.669 463.073 -187.912 8 
-25.9367 -26.3488 -172.349 8 
442.973 466.964 -178.78 8 
514.35 486.8 -174.001 8 
184.445 293.784 -141.908 8 
124.386 209.589 -149.563 8 
132.12 246.03 -167.65 8 
245.019 364.962 -145.196 8 
-35.9471 -22.534 -174.675 8 
91.0928 171.598 -160.029 8 
165.752 263.731 -113.792 8 
464.379 470.016 -188.349 8 
85.9289 112.701 -207.223 8 
123.935 185.86 -124.816 8 
17.4981 28.0382 -171.569 8 
514.516 499.825 -145.78 8 
70.5403 126.084 -126.043 8 
-9.58846 -11.0142 -163.559 8 
124.535 215.398 -150.436 8 
321.597 414.985 -137.234 8 
448.311 492.728 -138.468 8 
74.1392 127.717 -164.936 8 
118.412 197.531 -179.847 8 
52.5582 77.961 -168.361 8 
524.531 512.879 -128.318 8 
443.018 460.688 -184.757 8 
72.01 137.124 -163.703 8 
388.561 442.949 -185.794 8 
207.954 324.002 -141.625 8 
141.485 239.746 -147.388 8 
149.732 245.006 -138.077 8 
-12.6275 -6.30015 -204.421 8 
364.513 448.481 -168.185 8 
217.086 320.805 -127.908 8 
128.749 240.519 -173.871 8 
310.371 420.418 -155.507 8 
-22.9396 -33.3817 -201.497 8 
322.068 420.599 -148.433 8 
38.468 89.8325 -145.228 8 
211.991 301.854 -105.255 8 
103.11 177.353 -140.245 8 
45.1599 59.7598 -173.416 8 
255.65 360.951 -141.548 8 
356.87 439.745 -149.79 8 
15.49 -11.9915 -187.142 8 
423.025 487.963 -126.787 8 
177.257 300.525 -147.983 8 
611.653 455.593 -112.889 8 
50.8933 96.6137 -192.616 8 
239.258 346.969 -138.481 8 
267.006 367.62 -130.103 8 
-31.8119 -19.5306 -209.299 8 
-12.8976 -18.8926 -167.47 8 
274.449 365.987 -107.865 8 
246.096 345.764 -114.18 8 
508.505 487.22 -173.924 8 
418.557 479.622 -137.922 8 
-3.98112 8.01747 -201.51 8 
16.75 41.7468 -138.07 8 
18.2731 34.1092 -161.692 8 
442.556 498.323 -126.076 8 
76.8674 137.71 -144.138 8 
-19.6821 -23.7577 -204.102 8 
574.928 486.474 -138.121 8 
45.7657 115.526 -114.7 8 
190.446 371.649 -156.703 8 
54.7715 123.657 -104.608 8 
64.108 114.011 -185.963 8 
89.3708 154.986 -149.543 8 
-1.65207 18.2815 -156.124 8 
191.258 377.161 -159.815 8 
217.004 297.167 -85.311 8 
58.3543 107.887 -186.119 8 
393.961 474.907 -120.303 8 
118.557 161.432 -196.98 8 
382.658 461.532 -131.852 8 
112.655 155.443 -191.979 8 
-10.7474 14.8519 -153.112 8 
250.321 348.09 -101.972 8 
574.656 479.897 -150.017 8 
218.978 318.886 -113.838 8 
226.497 377.466 -155.855 8 
334.767 425.291 -137.899 8 
128.598 236.191 -161.499 8 
106.571 167.574 -179.78 8 
404.979 482.068 -114.556 8 
38.2034 104.215 -128.094 8 
550.523 503.772 -131.814 8 
412.491 484.638 -120.025 8 
274.837 357.614 -85.6624 8 
368.375 451.555 -102.554 8 
189.901 288.442 -125.508 8 
230.297 331.891 -119.813 8 
105.695 173.878 -174.328 8 
215.32 340.751 -145.69 8 
209.713 305.058 -114.273 8 
222.291 310.774 -96.9044 8 
286.703 377.233 -120.142 8 
353.053 444.073 -169.182 8 
322.653 413.604 -131.932 8 
543.338 479.098 -171.463 8 
177.79 276.571 -124.909 8 
252.201 358.152 -133.414 8 
543.865 489.245 -154.209 8 
304.653 389.496 -120.097 8 
-37.5906 -23.0823 -208.705 8 
610.043 461.187 -107.875 8 
40.9818 100.888 -137.408 8 
394.952 472.851 -125.726 8 
310.998 395.142 -120.285 8 
303.188 391.317 -124.552 8 
569.632 481.617 -151.309 8 
128.685 197.276 -124.364 8 
225.76 306.049 -84.4737 8 
313.181 411.066 -140.341 8 
152.279 247.664 -130.987 8 
382.672 455.852 -150.224 8 
52.351 107.7 -143.963 8 
43.9008 73.9429 -164.177 8 
328.935 419.089 -132.171 8 
195.76 300.252 -138.3 8 
143.166 233.276 -126.295 8 
617.186 449.615 -107.241 8 
188.646 318.599 -147.296 8 
443.043 472.298 -172.992 8 
316.893 401.364 -120.162 8 
19.1426 39.0692 -157.268 8 
249.631 408.714 -178.092 8 
261.067 362.298 -129.699 8 
478.301 509.887 -132.371 8 
57.3141 96.893 -215.222 8 
137.476 215.44 -108.193 8 
480.378 513.376 -128.723 8 
215.183 364.138 -152.014 8 
202.241 317.627 -141.826 8 
41.5793 77.4405 -161.577 8 
545.074 508.544 -127.502 8 
130.375 173.414 -107.536 8 
155.028 281.2 -156.499 8 
412.166 463.521 -169.016 8 
293.045 376.498 -108.285 8 
200.109 290.227 -105.459 8 
178.321 274.168 -83.9762 8 
419.08 484.099 -131.322 8 
-1.05419 22.56 -149.572 8 
107.205 154.446 -107.781 8 
14.3073 32.0643 -152.089 8 
269.313 371.409 -132.163 8 
336.372 423.654 -126.28 8 
105.898 149.672 -186.887 8 
280.239 359.962 -86.0298 8 
502.339 490.66 -161.647 8 
587.375 475.465 -144.791 8 
138.255 184.97 -109.113 8 
222.46 316.538 -102.708 8 
118.106 209.476 -167.857 8 
473.217 483.409 -173.525 8 
131.949 216.449 -201.122 8 
137.195 257.383 -174.802 8 
124.406 203.637 -131.242 8 
376.26 456.096 -132.109 8 
134.287 241.687 -154.082 8 
377.745 433.201 -196.344 8 
430.565 491.926 -125.985 8 
478.439 503.815 -138.154 8 
139.529 248.785 -152.671 8 
168.884 262.27 -83.9577 8 
159.96 275.985 -149.022 8 
581.333 486.516 -125.93 8 
238.448 389.767 -161.169 8 
30.7138 77.3472 -131.763 8 
143.177 263.109 -161.516 8 
388.544 456.279 -168.067 8 
310.095 402.291 -131.471 8 
95.3672 155.023 -132.809 8 
329.144 429.549 -156.147 8 
614.569 454.27 -106.744 8 
256.317 371.708 -144.015 8 
298.538 413.634 -155.778 8 
225.336 324.149 -107.748 8 
243.638 402.666 -172.751 8 
172.133 275.686 -142.261 8 
164.03 246.887 -95.2447 8 
460.529 503.413 -131.753 8 
156.33 311.153 -169.478 8 
95.4403 161.165 -172.735 8 
358.462 443.623 -180.036 8 
301.298 392.821 -128.668 8 
10.0951 36.9078 -132.623 8 
460.505 481.211 -168.058 8 
122.514 193.044 -129.408 8 
305.012 383.003 -108.127 8 
173.514 353.898 -157.917 8 
382.604 454.279 -168.055 8 
68.3748 116.407 -187.983 8 
563.288 493.265 -138.918 8 
341.661 430.951 -148.56 8 
286.817 413.335 -162.149 8 
-10.9055 -20.7616 -171.494 8 
-25.1319 -13.1305 -156.29 8 
195.791 300.14 -131.391 8 
166.671 251.665 -85.0161 8 
113.321 185.033 -132.878 8 
484.903 501.994 -142.466 8 
29.0848 40.786 -179.989 8 
515.122 514.598 -128.696 8 
521.087 481.386 -179.921 8 
150.996 267.789 -152.103 8 
-14.2764 -0.639277 -150.303 8 
292.141 408.405 -155.106 8 
580.799 491.163 -121.055 8 
-24.7251 -13.1652 -210.2 8 
55.8792 86.2096 -164.727 8 
100.559 137.49 -185.117 8 
73.9906 115.844 -163.277 8 
114.53 202.498 -166.7 8 
495.639 484.501 -189.914 8 
352.73 437.205 -131.971 8 
556.735 492.192 -143.971 8 
327.642 430.926 -161.441 8 
315.323 402.891 -125.144 8 
220.904 317.679 -107.926 8 
461.359 477.523 -178.313 8 
568.844 498.348 -126.208 8 
569.91 493.442 -133.064 8 
221.775 328.697 -132.549 8 
189.805 294.083 -141.478 8 
424.49 468.196 -168.024 8 
109.986 164.098 -123.978 8 
72.6931 111.179 -201.662 8 
156.328 250.64 -126.733 8 
112.298 179.59 -179.812 8 
137.782 203.898 -108.933 8 
294.932 387.283 -128.076 8 
278.552 404.022 -159.349 8 
576.238 481.844 -145.259 8 
328.922 433.422 -168.035 8 
35.7679 100.788 -131.021 8 
216.948 392.788 -170.028 8 
172.789 269.694 -90.0068 8 
284.505 385.906 -135.529 8 
268.447 360.416 -102.078 8 
128.721 175.114 -112.799 8 
162.596 261.789 -137.162 8 
39.5384 85.1643 -209.374 8 
75.7227 126.293 -157.103 8 
190.831 280.51 -83.0252 8 
460.01 468.533 -187.162 8 
539.145 486.99 -162.056 8 
71.2403 125.087 -154.957 8 
47.7495 93.9163 -188.469 8 
310.11 390.119 -113.356 8 
322.797 401.597 -107.997 8 
89.5771 154.684 -171.908 8 
110.101 157.165 -188.328 8 
126.842 203.118 -196.146 8 
107.107 197.175 -156.128 8 
94.5584 143.493 -179.676 8 
46.4027 89.8215 -209.733 8 
103.985 157.548 -182.465 8 
70.0678 120.164 -156.878 8 
173.831 323.241 -156.894 8 
284.172 380.358 -129.497 8 
154.79 233.492 -95.8183 8 
-4.18406 -10.3579 -170.592 8 
13.9741 25.9922 -163.97 8 
268.887 383.013 -145.288 8 
136.399 227.451 -132.105 8 
280.495 395.803 -149.734 8 
345.756 426.941 -96.795 8 
460.518 497.636 -137.721 8 
171.951 293.869 -148.651 8 
574.147 491.051 -131.581 8 
400.562 449.562 -179.772 8 
384.392 471.813 -112.929 8 
423.608 481.579 -139.276 8 
247.333 368.766 -146.656 8 
347.653 430.24 -108.129 8 
-4.67957 3.46621 -167.512 8 
424.396 455.988 -180.434 8 
265.364 410.747 -170.689 8 
-424.412 733.464 -151.075 9 
9.949 34.2348 -157.312 9 
-67.5495 469.58 -188.127 9 
-204.677 648.931 -106.268 9 
-62.0697 253.308 -92.4463 9 
-287.906 724.831 -196.958 9 
18.2161 171.755 -171.544 9 
-16.2766 342.607 -185.152 9 
-106.631 387.14 -87.0311 9 
-167.674 563.261 -205.037 9 
-122.046 530.988 -98.9923 9 
-231.591 641.911 -199.625 9 
-35.5787 249.048 -187.53 9 
-47.6892 158.688 -104.634 9 
-337.672 762.428 -126.415 9 
-257.866 716.23 -117.929 9 
-77.6167 322.486 -131.554 9 
-28.0889 106.719 -164.96 9 
-60.9766 399.298 -152.603 9 
-113.986 459.075 -127.506 9 
-169.113 584.647 -127.248 9 
-118.91 519.353 -175.384 9 
14.6325 88.2039 -118.269 9 
-40.3591 194.976 -155.667 9 
-340.976 751.443 -184.946 9 
-251.055 688.443 -169.044 9 
25.4031 110.504 -185.744 9 
-191.812 608.897 -175.784 9 
-462.764 700.879 -130.12 9 
-40.6042 296.618 -164.25 9 
-298.449 737.051 -146.267 9 
-64.5411 206.294 -108.323 9 
-44.9312 247.413 -138.835 9 
-149.311 536.932 -139.852 9 
-384.63 759.863 -139.54 9 
-113.723 340.741 -100.297 9 
-220.184 652.779 -152.318 9 
-21.3605 120.212 -118.763 9 
-94.861 286.815 -102.572 9 
-101.493 410.86 -127.834 9 
-115.025 435.57 -86.914 9 
-19.6404 386.05 -165.392 9 
-52.3688 351.435 -155.259 9 
-24.4476 152.911 -158.834 9 
-88.01 368.097 -125.662 9 
-84.2497 441.229 -157.98 9 
-42.9065 434.601 -172.32 9 
-111.031 485.799 -92.7226 9 
-235.714 678.967 -112.163 9 
-9.12864 214.42 -188.089 9 
-20.2409 63.1501 -169.323 9 
-128.953 499.489 -132.195 9 
-135.056 571.236 -105.59 9 
-60.8231 284.566 -129.263 9 
-100.875 483.6 -164.878 9 
-176.035 619.367 -105.354 9 
-159.284 570.329 -163.436 9 
-137.459 537.954 -204.909 9 
-93.3302 498.763 -199.711 9 
-197.247 621.442 -140.016 9 
-26.9639 298.478 -199.04 9 
10.6906 135.791 -162.747 9 
26.8386 65.7679 -143.621 9 
-275.792 711.734 -158.039 9 
-255.945 707.034 -198.405 9 
-213.78 609.892 -202.802 9 
-372.336 760.69 -173.42 9 
-7.25101 85.7908 -144.768 9 
-243.372 673.213 -198.002 9 
-29.2839 225.157 -163.473 9 
-36.5802 170.612 -133.733 9 
-12.4062 182.202 -168.397 9 
-192.315 584.361 -203.185 9 
-312.275 741.208 -175.574 9 
-38.5896 218.296 -128.488 9 
-139.09 542.861 -169.667 9 
-19.1814 32.4679 -174.629 9 
-207.781 635.426 -177.66 9 
4.40066 89.5818 -177.98 9 
-101.95 315.356 -114.438 9 
-37.2151 326.648 -164.042 9 
-151.329 598.413 -107.327 9 
-38.2589 266.934 -163.457 9 
-251.131 692.188 -133.744 9 
-401.933 752.52 -161.856 9 
-325.149 751.01 -151.486 9 
-181.402 596.832 -151.621 9 
-113.411 519.818 -203.455 9 
-408.315 747.271 -130.156 9 
-354.367 760.215 -151.584 9 
-38.6356 272.541 -202.971 9 
-281.967 736.336 -123.391 9 
-88.3526 394.312 -146.332 9 
-439.3 721.607 -130.693 9 
-72.9896 369.133 -149.637 9 
-224.813 661.474 -181.048 9 
