ply
format ascii 1.0
comment Author: CloudCompare (TELECOM PARISTECH/EDF R&D)
obj_info Generated by CloudCompare!
element vertex 1670
property float x
property float y
property float z
property float scalar_Original_cloud_index
end_header
-146.211 231.533 -7.84909 7 
-70.9356 111.15 -92.1824 7 
-82.5918 134.876 -71.7969 7 
-88.9549 149.126 -64.5823 7 
-213.504 300.271 1.565 7 
-17.3624 -84.9909 -151.424 7 
-9.64804 -64.8099 -128.572 7 
-99.2338 167.865 -56.5884 7 
-143.599 230.654 -27.8583 7 
-42.5786 64.3205 -82.7261 7 
-175.556 295.256 -24.6894 7 
-46.7888 34.7396 -119.631 7 
-179.365 290.861 -22.4545 7 
-55.2032 69.9887 -86.0273 7 
-85.7288 166.749 -91.1026 7 
-22.5298 -77.4037 -139.238 7 
-353.315 399.782 20.6708 7 
-274.702 343.535 24.1006 7 
-144.5 262.313 -50.4881 7 
-19.8275 -53.1635 -144.629 7 
-45.9099 39.2467 -123.017 7 
-38.6147 83.039 -74.7442 7 
-174.929 259.93 0.392281 7 
-123.379 205.525 -31.8669 7 
-162.714 282.941 -34.974 7 
-2.89906 31.027 -100.103 7 
-66.151 107.229 -99.8599 7 
-18.2042 2.48743 -106.612 7 
-25.971 -60.6791 -131.313 7 
-84.9462 140.111 -68.5789 7 
-225.767 308.111 8.76711 7 
-166.888 263.157 -23.8051 7 
-210.569 318.79 -4.46104 7 
-186.719 283.204 -11.767 7 
-111.089 186.759 -51.5733 7 
-266.433 354.352 12.1928 7 
-87.3665 174.892 -91.7261 7 
-86.6582 189.166 -8.52528 7 
-75.3114 118.586 -83.9514 7 
-207.041 329.425 -5.5772 7 
-43.2134 31.2702 -127.479 7 
-93.2152 163.676 -72.0572 7 
-70.3964 103.348 -87.0777 7 
-15.0556 -36.388 -118.754 7 
-77.631 178.273 -18.1473 7 
-30.6193 -25.7429 -134.587 7 
-334.269 382.994 24.8113 7 
-105.971 203.251 -75.5875 7 
-25.5101 -64.5354 -127.201 7 
-199.411 282.467 12.4044 7 
-59.5855 110.364 -62.2208 7 
-91.3606 166.85 -79.7281 7 
-73.2426 111.72 -83.9919 7 
-45.0343 45.9975 -123.375 7 
-18.8835 -96.7585 -147.675 7 
-26.5466 -24.6558 -115.52 7 
-254.781 351.02 9.75917 7 
-144.709 229.169 -22.6436 7 
-138.03 223.185 0.017359 7 
-43.5763 47.212 -127.651 7 
-21.9572 21.8927 -136.709 7 
-78.919 143.183 -92.1918 7 
-26.9795 -32.5303 -118.224 7 
-55.8111 63.2491 -103.912 7 
-53.6362 138.24 -46.5838 7 
-59.2478 110.913 -108.208 7 
-46.6645 62.6932 -115.296 7 
-122.183 231.694 -63.4791 7 
-326.189 391.135 20.9013 7 
-145.873 235.608 -31.4394 7 
-134.84 223.222 -39.3985 7 
-268.58 365.366 15.2288 7 
-3.40866 24.1082 -104.348 7 
-18.757 74.3945 -71.2981 7 
-279.595 358.287 15.4799 7 
-37.5663 79.2967 -127.391 7 
-22.6287 -21.0211 -139.448 7 
-55.4947 86.2704 -108.418 7 
-33.8192 79.5616 -76.3053 7 
-10.4845 -12.595 -141.4 7 
-48.1221 34.6701 -115.093 7 
-171.499 271.042 -23.9212 7 
-22.2684 -36.4414 -118.55 7 
-98.4215 194.801 -83.0729 7 
-18.6374 67.5456 -71.6948 7 
-327.276 381.952 23.4004 7 
-50.2909 143.314 -46.3007 7 
-50.243 39.3683 -108.147 7 
-34.9566 58.9419 -82.6653 7 
-58.7152 70.8249 -99.3699 7 
-22.6897 59.6281 -76.0413 7 
-25.301 -68.6805 -131.73 7 
-179.385 302.822 -20.5784 7 
-119.938 222.345 -64.018 7 
-75.0052 135.256 -95.7996 7 
-35.2947 37.9355 -90.6222 7 
-195.581 294.216 -7.95583 7 
-93.1156 157.039 -60.6781 7 
-35.2417 46.9846 -86.3516 7 
-277.775 346.042 35.4361 7 
-62.9176 122.95 -54.9391 7 
-54.644 122.59 -111.477 7 
-51.7312 46.728 -107.902 7 
-15.6444 -20.7221 -114.594 7 
-38.947 99.5941 -68.6111 7 
-50.9297 91.5802 -71.2644 7 
-21.9276 41.8197 -86.4692 7 
-49.9487 80.5244 -76.4741 7 
-75.8602 130.611 -91.8449 7 
-14.6522 43.326 -87.646 7 
-24.4409 -66.0532 -135.898 7 
-153.154 268.029 -42.417 7 
-227.244 311.065 7.90651 7 
-53.4919 67.2236 -107.42 7 
-18.6657 -12.7322 -139.641 7 
-85.9024 178.733 -95.3417 7 
-219.41 322.83 -2.81074 7 
-166.069 251.002 0.170985 7 
-86.3759 143.514 -60.206 7 
-306.796 379.034 19.813 7 
-98.0581 187.564 -79.2341 7 
-14.6105 11.2473 -136.423 7 
-230.749 337.254 1.07396 7 
-7.93619 -12.0775 -116.572 7 
-14.607 3.22358 -107.516 7 
-171.164 262.659 -15.4813 7 
-133.312 243.903 -54.6292 7 
-40.8007 5.21435 -116.58 7 
-182.921 267.415 4.66727 7 
-22.2773 -69.3807 -128.692 7 
-13.0107 17.6012 -101.364 7 
-45.4763 80.1751 -117.466 7 
-330.202 380.075 25.4066 7 
-33.8748 24.6094 -96.5931 7 
-45.2169 35.2877 -124.176 7 
-26.6436 -1.27588 -135.155 7 
-35.3311 6.57314 -106.455 7 
-34.9024 34.4949 -136.474 7 
-78.43 146.932 -96.0924 7 
-14.0266 -32.7529 -144.5 7 
-35.5556 22.3207 -98.7226 7 
-5.9071 -25.1064 -123.075 7 
-51.2669 100.024 -66.7707 7 
-246.962 327.178 12.3533 7 
-111.75 218.929 -75.3544 7 
-146.464 239.468 -35.494 7 
-42.2167 10.931 -119.342 7 
-58.3412 134.92 -47.6389 7 
-78.5942 126.785 -66.3748 7 
-29.8508 -40.5597 -131.57 7 
-230.1 307.359 16.0839 7 
-19.6961 -19.707 -140.814 7 
-39.2944 18.9061 -131.255 7 
-35.7906 -16.5036 -114.418 7 
-9.974 26.6628 -98.5886 7 
-230.094 323.283 4.7471 7 
-41.9357 11.397 -111.504 7 
-0.917754 -30.057 -143.154 7 
-223.95 318.636 3.47442 7 
-1.96925 -33.4529 -131.646 7 
-80.1097 162.09 -33.4891 7 
-31.2794 2.59372 -106.492 7 
-38.9864 -0.756973 -127.696 7 
-19.4966 40.0835 -88.2736 7 
-7.30659 -4.69861 -138.402 7 
-74.6157 167.893 -24.76 7 
-63.5657 98.3208 -74.7257 7 
-39.6528 58.6172 -136.402 7 
-161.265 264.68 -33.3707 7 
-199.261 282.67 20.7607 7 
-22.5532 -5.39626 -107.947 7 
-163.924 262.336 -28.0768 7 
-128.662 217.214 -4.58425 7 
-6.85732 -65.0922 -131.193 7 
-166.715 279.228 -31.7113 7 
-38.6304 74.2627 -78.525 7 
-89.2979 156.164 -52.0091 7 
-87.1279 159.223 -83.7955 7 
-43.4917 74.9023 -119.432 7 
-45.0444 50.3724 -119.716 7 
-84.7419 171.235 -94.6941 7 
-9.32413 -89.3963 -134.542 7 
-29.729 -17.7361 -134.245 7 
-44.3894 57.6548 -85.5102 7 
-22.6744 -57.5969 -143.021 7 
-30.5568 46.648 -139.752 7 
-14.3479 -5.03357 -111.058 7 
-66.6419 147.244 -106.588 7 
-130.91 218.859 -43.7185 7 
-145.895 259.789 -47.8411 7 
-69.0457 108.124 -94.7901 7 
-57.6087 106.879 -63.8681 7 
-149.585 236.012 -23.229 7 
-91.5514 174.96 -83.8844 7 
-159.464 246.39 -15.351 7 
-71.6223 118.282 -67.1143 7 
-191.948 298.606 -12.6213 7 
-79.9402 138.78 -87.5079 7 
-66.9227 154.272 -34.4124 7 
-46.6245 88.2042 -72.5043 7 
-61.6485 108.193 -64.5038 7 
-205.602 288.281 8.88245 7 
-50.9575 83.7488 -75.1657 7 
-90.7519 150.055 -58.1956 7 
-45.4372 94.2672 -117.499 7 
-33.6921 0.215156 -108.496 7 
-19.1074 -84.7559 -147.44 7 
-22.9158 -16.4272 -138.56 7 
-47.3378 78.4637 -115.299 7 
-17.6456 27.336 -95.2269 7 
-75.4245 153.762 -38.1409 7 
-42.8137 127.191 -59.0592 7 
-115.676 218.717 -68.5981 7 
-152.25 238.335 -19.9394 7 
-11.1085 -59.8795 -150.55 7 
-7.48309 -37.1742 -144.373 7 
-223.228 326.97 0.513891 7 
-66.9038 130.939 -51.1058 7 
-301.699 368.189 21.2152 7 
-120.495 213.372 5.42669 7 
-282.609 359.283 16.4525 7 
-158.894 243.025 9.05821 7 
-342.628 386.822 23.5251 7 
-205.903 311.248 -6.32365 7 
-10.5611 7.18536 -107.441 7 
-29.3133 55.9213 -80.5212 7 
-21.7133 14.243 -135.485 7 
-27.208 102.704 -68.4866 7 
-66.9193 159.321 -30.6928 7 
-106.551 179.835 -51.8053 7 
-179.391 266.496 24.4096 7 
-46.9432 46.9027 -115.881 7 
-37.0288 -15.9023 -126.644 7 
-57.5966 150.18 -38.452 7 
-86.594 143.684 -67.794 7 
-240.771 320.154 8.91411 7 
-114.753 222.144 -71.2758 7 
-38.5428 47.3268 -87.7469 7 
-204.008 294.551 -0.630021 7 
-44.974 87.2408 -118.28 7 
-178.413 282.676 -22.445 7 
-35.2146 122.498 -64.3197 7 
-30.2425 -41.0211 -120.712 7 
-341.903 395.539 20.7918 7 
-299.563 370.316 19.5595 7 
-134.422 231.08 -47.3029 7 
-39.4075 50.8598 -135.786 7 
-194.34 283.414 -3.19271 7 
-215.525 322.309 -2.39559 7 
-198.909 290.97 -3.13816 7 
-14.6282 -65.0827 -127.187 7 
-29.6592 -3.81075 -108.439 7 
-205.919 325.904 -6.46169 7 
-9.09683 21.5886 -101.456 7 
-39.246 -4.85762 -123.523 7 
-26.2475 2.99555 -104.808 7 
-59.8822 90.8673 -104.297 7 
-19.5188 53.8769 -77.4705 7 
-189.761 310.799 -14.4149 7 
-46.4383 27.7127 -111.783 7 
-149.951 231.922 12.4052 7 
-7.27764 -20.3955 -119.982 7 
-94.8184 162.85 -51.486 7 
-322.305 387.251 21.2474 7 
-102.453 180.02 -67.7889 7 
-54.35 59.143 -90.3019 7 
-65.7029 112.127 -64.4157 7 
-35.8096 62.0872 -82.1393 7 
-297.645 364.245 21.3192 7 
-168.472 253.375 11.3986 7 
-39.8049 67.5037 -135.435 7 
-265.985 336.807 24.3214 7 
-114.054 191.795 -52.0762 7 
-8.43287 -59.7699 -128.404 7 
-56.0915 98.5697 -108.695 7 
-43.555 23.0721 -101.938 7 
-211.681 294.249 7.87379 7 
-66.4572 99.2849 -95.0198 7 
-122.442 207.559 -51.7314 7 
-184.662 269.218 1.40194 7 
-121.942 200.572 -36.5183 7 
-98.4526 179.009 -32.2706 7 
-270.984 354.935 13.242 7 
-29.9324 38.9312 -138.491 7 
-218.342 311.767 0.939875 7 
-22.3007 30.5995 -138.571 7 
-294.92 374.042 17.8806 7 
-74.4796 122.901 -91.3529 7 
-156.597 241.28 -2.58538 7 
-0.438605 33.1289 -100.387 7 
-170.739 274.829 -27.1367 7 
-18.6546 -104.725 -150.587 7 
-318.497 379.508 22.2418 7 
-261.922 350.952 11.5423 7 
-326.886 374.753 28.5201 7 
-50.0352 134.992 -50.4019 7 
-114.506 194.919 -55.7197 7 
-18.5649 15.3545 -135.676 7 
-154.874 246.854 -27.6712 7 
-127.362 226.915 -55.6306 7 
-25.6964 11.2925 -135.249 7 
-102.603 198.805 -3.59806 7 
-138.059 232.535 -43.3285 7 
-42.0336 50.4734 -131.678 7 
-112.669 185.125 -44.5001 7 
-112.509 205.419 -2.66536 7 
-161.143 269.079 -34.2029 7 
-110.37 215.237 -75.4392 7 
-158.718 246.836 -19.5526 7 
-219.037 299.16 12.316 7 
-46.5853 43.3333 -94.7417 7 
-73.4415 144.296 -44.5998 7 
-19.5395 -3.8168 -108.371 7 
-295.155 358.43 24.535 7 
-22.8028 -82.0654 -136.025 7 
-69.5351 136.299 -48.5546 7 
-10.0126 18.6204 -102.555 7 
-65.4465 112.107 -101.46 7 
-37.6188 3.76896 -130.912 7 
-39.8968 42.59 -90.5226 7 
-98.1234 180.058 -74.9626 7 
-130.314 227.087 -51.1882 7 
-82.8427 151.009 -47.3299 7 
-86.9178 183.051 -14.7417 7 
-38.6489 27.255 -98.2413 7 
-46.3457 138.964 -51.0411 7 
-5.81364 -1.6789 -114.382 7 
-15.5682 0.18252 -108.419 7 
-244.806 327.151 9.98092 7 
-31.55 107.053 -67.7533 7 
-196.527 297.299 -8.48147 7 
-106.038 184.059 -63.3223 7 
-57.9662 127.57 -109.938 7 
-81.5324 148.227 -48.5896 7 
-59.4659 86.8448 -78.9986 7 
-7.84476 -77.1517 -132.58 7 
-83.6366 142.216 -59.1952 7 
-11.3622 -16.1535 -141.872 7 
-55.5769 102.309 -66.162 7 
-19.5056 -72.963 -129.861 7 
-37.2493 35.8928 -92.5213 7 
-150.911 235.451 -4.24042 7 
-25.6439 25.0957 -137.421 7 
-70.413 123.707 -59.528 7 
-41.1627 70.584 -122.475 7 
-2.48805 11.087 -111.868 7 
-159.437 258.335 -31.9673 7 
-79.1079 143.018 -51.3378 7 
-0.170115 -24.8265 -130.942 7 
-98.8197 183.261 -75.894 7 
1.2722 3.27544 -119.41 7 
-197.328 300.78 -9.3843 7 
-26.6178 27.7913 -94.6373 7 
-26.6382 18.7944 -98.71 7 
-254.991 327.368 28.2129 7 
-72.3056 141.714 -46.0621 7 
-201.636 303.246 -6.6582 7 
-95.4972 178.332 -26.6198 7 
-54.6636 106.932 -110.689 7 
-6.63329 43.323 -90.3349 7 
-293.701 355.125 32.4125 7 
-71.0725 155.252 -104.572 7 
-94.2984 179.291 -23.6832 7 
-234.034 315.877 8.28767 7 
-27.3258 45.8704 -140.702 7 
-237.004 331.038 6.59062 7 
-245.321 339.911 5.37195 7 
-51.2466 122.908 -114.335 7 
-93.4856 175.245 -79.4133 7 
0.060113 -28.3879 -139.94 7 
-141.998 236.056 -39.8599 7 
-96.1711 165.742 -50.1208 7 
-81.6803 160.185 -36.4216 7 
-44.0114 49.7469 -89.4081 7 
-66.6143 166.227 -27.4902 7 
-65.6608 91.2514 -91.6458 7 
-186.362 287.435 -15.1078 7 
-11.9466 11.8869 -104.531 7 
-36.0525 17.77 -101.541 7 
-46.9047 102.436 -115.807 7 
-246.583 339.288 8.51176 7 
-21.3122 -84.4323 -139.673 7 
-82.6151 182.503 -14.8961 7 
-208.408 301.417 -0.300096 7 
-70.8817 104.18 -80.5865 7 
-2.3163 -25.189 -127.723 7 
-10.7403 -64.4365 -154.135 7 
-52.5149 118.266 -112.441 7 
-242.891 347.328 6.55027 7 
-217.939 296.862 16.2973 7 
-5.57739 -0.730682 -136.678 7 
-47.9304 61.8044 -85.4785 7 
-170.945 294.338 -27.5996 7 
-118.843 206.677 -11.8868 7 
-238.858 318.791 12.1389 7 
-24.5317 -39.7544 -140.458 7 
-101.596 183.87 -27.8818 7 
-22.6148 44.2529 -84.59 7 
-59.6294 123.258 -108.606 7 
-81.7099 184.948 -12.3226 7 
-72.6829 149.163 -40.461 7 
-42.5679 111.216 -64.4766 7 
-68.0853 105.797 -73.3716 7 
-40.32 2.30401 -123.559 7 
-116.449 197.425 -34.6542 7 
-20.1267 -89.696 -143.508 7 
-43.6622 59.2897 -119.579 7 
-25.1547 -25.462 -138.318 7 
-162.446 255.571 -23.5154 7 
-73.2376 115.092 -87.7441 7 
-62.7024 91.2071 -78.5784 7 
-66.8283 102.629 -74.423 7 
-81.3286 155.889 -94.6468 7 
-246.566 346.275 7.56199 7 
-213.996 292.743 20.3059 7 
-38.9586 7.56303 -106.541 7 
-147.439 230.761 4.57118 7 
-28.7132 -58.8208 -126.421 7 
-0.187124 -19.865 -127.405 7 
-194.652 291.252 -7.2657 7 
-62.2577 115.267 -59.9368 7 
-14.5094 -100.519 -137.385 7 
-141.818 232.209 -35.5936 7 
-98.9992 194.489 -7.03753 7 
-158.302 239.857 16.1068 7 
-25.87 -59.7973 -135.66 7 
-166.451 251.848 -3.42286 7 
-70.9807 138.878 -47.5188 7 
-38.6016 107.262 -66.5849 7 
-250.283 323.186 28.601 7 
-94.4691 160.321 -60.5673 7 
-127.125 211.21 -27.207 7 
-233.7 304.135 32.5579 7 
-91.0283 154.889 -54.9416 7 
-34.5904 111.252 -66.5291 7 
-107.132 191.258 -67.5602 7 
-163.528 254.482 -19.7393 7 
-35.4301 38.8546 -136.69 7 
-89.5158 171.62 -87.0065 7 
-30.6167 111.634 -66.4764 7 
-5.76463 -16.7458 -139.459 7 
-103.04 187.416 -71.7062 7 
-46.2625 55.6314 -115.017 7 
-7.68849 -36.7429 -124.584 7 
-82.278 171.865 -23.4554 7 
-170.687 256.228 23.4526 7 
-48.6967 29.1432 -100.284 7 
-205.807 286.982 20.3981 7 
-90.4965 152.294 -63.6071 7 
-131.63 219.18 -3.59884 7 
-205.258 292.084 1.31827 7 
-273.016 352.91 14.4574 7 
-41.0106 8.20723 -123.651 7 
-30.5636 67.3126 -78.797 7 
-203.922 302.626 -4.53518 7 
-31.546 50.2938 -140.472 7 
-87.1521 182.713 -95.6229 7 
-95.2024 162.671 -63.5351 7 
-38.7961 74.2975 -134.495 7 
-46.5232 66.3173 -82.6414 7 
-87.022 163.276 -87.8092 7 
-39.9225 6.60374 -127.31 7 
-150.041 236.095 -15.716 7 
-113.532 207.535 -67.1432 7 
-176.294 261.649 17.3482 7 
-143.805 246.651 -44.3877 7 
-73.4819 127.246 -94.9825 7 
-290.053 363.859 17.8935 7 
-42.3444 18.9073 -123.315 7 
-110.556 195.078 -23.4529 7 
-6.35316 -17.0293 -119.455 7 
-96.528 173.408 -38.6942 7 
-73.5317 136.347 -52.0653 7 
-69.5673 132.304 -52.0062 7 
-44.9454 24.1741 -107.573 7 
-227.177 306.383 12.4874 7 
-266.191 347.698 13.5559 7 
-108.84 209.171 -74.7319 7 
-74.9573 138.93 -51.1137 7 
-107.007 190.882 -23.6433 7 
-250.835 331.059 12.8808 7 
-258.646 339.225 13.341 7 
-311.513 378.347 20.8734 7 
-174.101 291.021 -26.2063 7 
-118.301 211.193 0.243961 7 
-286.028 352.144 24.3372 7 
-218.323 295.085 24.5828 7 
-157.948 260.036 -34.7671 7 
-237.697 308.254 32.5567 7 
-50.7473 62.8518 -87.1179 7 
-13.9256 -62.1286 -126.453 7 
-65.9742 140.508 -44.4681 7 
-30.5524 -36.5378 -119.26 7 
-72.4881 138.288 -100.46 7 
-92.3465 181.367 -84.4937 7 
-37.2012 13.2091 -133.358 7 
-32.0414 -16.7176 -132.488 7 
-184.715 269.156 12.4184 7 
-49.4707 72.3344 -80.6053 7 
-77.8888 152.637 -40.5662 7 
-28.7293 45.1252 -84.3164 7 
-98.0052 167.826 -63.5896 7 
-12.0457 -20.7712 -116.469 7 
-65.6232 142.832 -106.869 7 
-307.341 362.982 32.6283 7 
-102.696 171.193 -51.1403 7 
-64.0281 98.2929 -100.053 7 
-44.6906 53.2738 -118.616 7 
-14.2849 22.9088 -98.5526 7 
-36.1449 -13.6491 -119.59 7 
-98.4415 166.934 -59.8382 7 
-175.281 279.249 -24.1409 7 
-153.53 251.814 -35.3219 7 
-26.5805 -41.7602 -138.913 7 
-118.786 203.106 -23.345 7 
-111.977 214.33 -72.0247 7 
-66.4059 119.476 -59.3232 7 
-22.1533 -49.3733 -142.926 7 
-14.6878 -81.0226 -131.802 7 
-50.3833 42.2991 -103.593 7 
-70.3842 115.22 -95.8815 7 
-226.093 299.725 28.3509 7 
-70.025 103.825 -75.0825 7 
-102.789 183.1 -31.712 7 
-28.1567 -49.6885 -128.454 7 
-54.7328 64.1621 -88.4216 7 
-262.284 343.617 13.3657 7 
-86.3308 171.276 -27.7258 7 
-70.8709 158.976 -31.4392 7 
-19.8218 -93.3446 -143.03 7 
-50.3333 114.962 -60.0374 7 
-30.6635 -45.8276 -122.397 7 
-58.4621 134.299 -110.335 7 
-75.0217 142.854 -47.5235 7 
-83.1445 151.212 -87.804 7 
-70.1645 139.551 -103.276 7 
-26.6688 -16.44 -135.926 7 
-39.4548 71.3633 -131.567 7 
-66.683 114.948 -63.0805 7 
-98.4885 187.02 -15.8528 7 
-30.4657 63.3192 -79.5456 7 
-57.0584 153.573 -37.4207 7 
-63.6233 102.261 -71.0867 7 
-38.6413 91.3557 -71.5195 7 
-78.8102 126.181 -75.5998 7 
1.14588 -12.4699 -127.44 7 
-68.4255 153.326 -106.338 7 
-23.3595 -71.8488 -136.693 7 
-57.9959 112.447 -60.3783 7 
-166.557 259.316 -19.5301 7 
-148.438 265.322 -46.4597 7 
-58.9119 106.973 -107.456 7 
-198.02 287.495 -2.3969 7 
-7.20286 11.5413 -107.895 7 
-49.6744 38.6591 -111.217 7 
-154.015 259.985 -38.8602 7 
-182.166 279.695 -15.6931 7 
-79.0317 146.868 -47.515 7 
-266.501 358.225 12.1448 7 
-218.547 303.342 4.7624 7 
-38.6121 11.5157 -105.426 7 
-54.9503 151.276 -39.624 7 
-14.6268 -88.8927 -134.202 7 
-78.9065 171.01 -22.9793 7 
-221.543 330.281 -0.422486 7 
-150.976 247.142 -35.665 7 
-141.968 247.952 -46.8078 7 
-208.399 310.372 -4.26856 7 
-140.852 224.971 5.39446 7 
-285.744 359.652 17.6348 7 
-107.181 178.726 -46.0659 7 
-39.0808 14.9353 -131.144 7 
-74.553 114.281 -79.5814 7 
-15.8684 -12.1268 -112.41 7 
-133.419 240.971 -53.4691 7 
-347.55 391.456 22.1028 7 
-111.226 186.306 -42.1218 7 
-55.1416 79.2237 -107.887 7 
-160.587 245.29 4.41099 7 
-54.6136 111.634 -60.3879 7 
-41.9521 35.5569 -96.0437 7 
-137.609 223.271 8.38274 7 
-90.3519 179.478 -19.4725 7 
-338.646 383.659 25.215 7 
-11.6285 15.2239 -135.949 7 
-134.569 221.365 5.40742 7 
-163.877 270.604 -32.5537 7 
-175.615 270.231 -16.0558 7 
-254.542 327.32 32.4138 7 
-140.751 225.09 0.723607 7 
-242.7 319.168 16.2976 7 
-84.2632 161.538 -38.8138 7 
-63.0039 147.311 -39.0528 7 
-71.8385 114.762 -70.1688 7 
-35.0122 30.391 -94.3284 7 
-208.915 293.017 5.23141 7 
-40.6262 65.2589 -128.591 7 
-22.9986 77.9976 -73.8554 7 
-164.614 249.265 15.4089 7 
-38.7463 39.2403 -134.723 7 
-1.9616 -11.8345 -132.896 7 
-172.941 259.004 21.4488 7 
-17.9793 -92.7823 -151.976 7 
-24.5301 -11.7786 -136.434 7 
-56.8706 92.9355 -72.0187 7 
-224.546 301.346 19.4371 7 
-290.838 359.079 20.657 7 
-289.19 371.257 17.0359 7 
-103.412 202.631 -79.4001 7 
-136.266 221.575 -20.5927 7 
-204.913 288.942 5.2509 7 
-50.585 103.787 -64.6158 7 
-93.897 168.006 -75.8204 7 
-49.3514 114.868 -114.506 7 
-115.388 193.855 -38.4785 7 
-119.038 198.738 -47.3252 7 
-241.613 316.272 20.8563 7 
-249.508 328.425 13.4293 7 
-7.73982 -56.7324 -128.687 7 
-207.561 290.33 7.90768 7 
-3.57658 -56.7291 -148.638 7 
-182.689 271.227 -8.14964 7 
-17.6173 -46.4285 -121.458 7 
-274.581 350.969 16.1164 7 
-142.961 227.425 -2.88494 7 
-194.515 299.804 -11.6506 7 
-56.2733 74.2952 -104.361 7 
-43.1811 16.1362 -108.747 7 
-158.079 278.584 -38.6981 7 
-176.559 261.326 12.4012 7 
-194.655 279.259 4.3537 7 
-23.67 54.1065 -78.3653 7 
-13.6171 18.2968 -136.12 7 
-236.884 309.069 29.3068 7 
-111.174 186.69 -48.1348 7 
-95.5848 170.286 -43.064 7 
-277.811 348.034 20.6938 7 
-112.899 200.959 -12.4728 7 
-168.539 253.324 19.4176 7 
-112.226 207.81 3.40208 7 
-117.625 200.258 -28.0445 7 
-70.3805 119.528 -63.5132 7 
-5.41189 1.62666 -113.512 7 
-224.254 297.821 31.5335 7 
-30.4837 31.3414 -137.658 7 
-232.306 309.595 15.5519 7 
-21.2425 -93.7099 -138.884 7 
-297.631 360.23 24.7939 7 
-165.172 268.13 -30.1622 7 
-258.996 334.92 16.3114 7 
-63.9917 90.5007 -95.6789 7 
-106.397 191.464 -19.7696 7 
-113.761 196.136 -28.0103 7 
-112.41 197.463 -19.6385 7 
-192.845 277.062 5.38905 7 
-49.757 60.158 -87.9325 7 
-99.5989 198.452 -83.3881 7 
-108.775 197.088 -12.4989 7 
-14.712 -70.6849 -150.696 7 
-138.506 227.089 -35.6655 7 
-119.183 206.094 -15.031 7 
-104.54 177.309 -55.5877 7 
-197.126 280.542 16.3648 7 
-92.7351 185.218 -86.6442 7 
-36.7198 115.416 -65.417 7 
-214.67 295.21 12.3795 7 
-170.311 255.533 12.5756 7 
-109.583 196.294 -16.0713 7 
-178.717 263.203 8.37566 7 
-132.522 217.359 -22.5922 7 
-84.403 157.45 -42.7834 7 
-183.858 286.637 -16.4926 7 
-71.48 130.374 -55.2281 7 
-91.4849 166.384 -43.1695 7 
-272.38 341.623 24.4793 7 
-120.777 201.148 -43.5779 7 
-193.354 292.884 -9.3976 7 
-105.81 188.153 -28.0616 7 
-202.661 287.22 4.37646 7 
-6.05781 6.99248 -110.739 7 
-55.8752 147.882 -40.4818 7 
-128.896 213.081 -39.6306 7 
-38.4014 63.2548 -138.423 7 
-292.595 357.298 23.4453 7 
-197.989 295.579 -6.36906 7 
-276.78 345.011 32.4412 7 
-87.3479 150.504 -55.4033 7 
-16.4285 -71.7894 -148.289 7 
-236.364 313.524 15.5439 7 
-124.505 213.444 -6.65573 7 
-115.259 207.052 -64.0452 7 
-52.9367 133.772 -49.4722 7 
-318.606 375.314 24.4218 7 
-45.8579 48.0701 -91.7832 7 
-109.671 200.141 -8.01093 7 
-73.8411 120.076 -67.8988 7 
-59.9718 82.3904 -100.215 7 
-111.526 194.322 -27.1045 7 
-93.7869 155.982 -55.6634 7 
-88.8145 149.153 -70.6246 7 
-198.628 283.256 4.36609 7 
-152.747 237.152 -2.61584 7 
-37.8388 59.2295 -138.784 7 
-88.1046 165.724 -38.9767 7 
-37.2971 54.8791 -138.445 7 
-103.236 186.653 -23.6057 7 
-238.609 315.276 16.3877 7 
-41.1593 62.3616 -131.665 7 
-274.543 358.801 13.6193 7 
-143.165 226.777 8.42844 7 
-68.8849 129.212 -102.861 7 
-103.147 190.731 -15.4073 7 
-250.875 327.015 16.1466 7 
-103.213 178.324 -43.6709 7 
-176.592 286.262 -24.5528 7 
-47.1273 71.5316 -115.359 7 
-32.9272 -27.8101 -123.549 7 
-42.5702 99.2621 -119.523 7 
-18.4783 -76.4873 -147.569 7 
-138.957 242.929 -47.7778 7 
-78.8792 138.985 -55.2787 7 
-25.5303 6.15874 -136.162 7 
-101.915 179.876 -35.3051 7 
-99.5358 170.622 -63.6794 7 
-208.777 289.037 20.3894 7 
-7.54204 40.0825 -92.3362 7 
-10.3976 -0.964188 -111.198 7 
-78.9097 150.964 -43.2657 7 
-25.7149 67.2376 -76.4293 7 
-45.3247 97.3314 -117.442 7 
-34.2511 102.878 -68.4044 7 
-194.059 314.616 -12.1277 7 
-112.758 189.174 -51.5938 7 
-115.85 193.774 -47.504 7 
-20.5778 -100.562 -137.281 7 
-36.2079 9.75488 -105.571 7 
-69.8122 135.225 -102.791 7 
-322.669 375.563 25.7058 7 
-82.7679 155.085 -43.4171 7 
-111.523 198.37 -15.3253 7 
-269.977 343.862 17.6594 7 
-262.604 335.287 20.3702 7 
-24.2147 57.5118 -77.378 7 
-189.989 275.898 20.4061 7 
-28.55 -46.732 -131.587 7 
-51.3318 70.9075 -111.316 7 
-173.948 260.308 -7.42475 7 
-30.8459 -36.8067 -127.567 7 
-223.583 306.312 8.02335 7 
-62.3756 95.3218 -75.6523 7 
-176.545 269.27 -12.5223 7 
-74.394 151.441 -39.5902 7 
-57.8504 86.8015 -106.377 7 
-161.728 275.752 -35.4322 7 
-38.3509 31.527 -95.695 7 
-40.1843 68.1525 -131.616 7 
-215.261 294.63 16.4221 7 
-93.6057 160.299 -52.6645 7 
-41.205 7.74986 -115.187 7 
-193.005 276.764 12.4659 7 
-49.3785 110.309 -114.195 7 
-67.1906 121.983 -58.0501 7 
-51.5676 94.2933 -112.572 7 
-1.77246 6.58185 -114.516 7 
-64.569 157.143 -32.3921 7 
-34.6308 43.2644 -87.5685 7 
-107.509 190.416 -27.1826 7 
-208.249 289.716 12.509 7 
-324.736 371.078 31.2491 7 
-270.854 347.029 16.0533 7 
-101.864 175.659 -63.517 7 
-124.249 209.708 -19.6658 7 
-11.4759 4.09307 -108.266 7 
-134.326 247.524 -55.1502 7 
-92.4051 173.529 -31.6702 7 
-202.537 307.31 -7.48113 7 
-260.976 332.84 24.3497 7 
-246.81 323.112 16.1845 7 
-125.875 215.655 -51.4502 7 
-139.021 235.277 -43.512 7 
-182.404 306.407 -18.7245 7 
-10.9834 -92.9086 -135.156 7 
-58.3869 79.5741 -82.6291 7 
-217.83 300.051 8.60439 7 
-23.4417 -32.7944 -140.273 7 
-68.3171 145.819 -41.4225 7 
-221.845 304.034 8.58471 7 
-233.479 328.391 5.69656 7 
-60.2759 105.799 -65.4214 7 
-66.1175 91.3332 -84.5693 7 
-297.83 356.012 35.2624 7 
-3.94958 15.9131 -108.568 7 
-104.499 185.403 -30.7215 7 
-216.692 317.183 -2.78684 7 
-213.873 296.022 8.57383 7 
-151.817 234.109 12.0006 7 
-107.44 186.726 -63.7481 7 
-180.547 265.335 0.426786 7 
-112.479 193.375 -31.6203 7 
-162.049 243.972 19.168 7 
-47.644 51.2981 -112.889 7 
-58.8736 70.1483 -92.541 7 
-45.5342 114.201 -62.4388 7 
-295.649 366.245 19.3369 7 
-58.3645 75.9197 -84.3891 7 
-231.259 310.639 12.344 7 
-56.1161 61.3912 -95.5927 7 
-229.976 303.886 24.4014 7 
-263.316 334.544 28.4111 7 
-214.592 311.736 -2.12983 7 
-92.159 162.382 -75.4667 7 
-110.421 217.391 -78.5458 7 
-144.604 233.272 -28.5812 7 
-249.894 323.997 20.432 7 
-26.2297 31.8978 -92.3811 7 
-275.437 346.492 20.093 7 
-56.9941 64.1422 -99.5995 7 
-74.4109 159.196 -102.396 7 
-14.6156 -55.7559 -124.606 7 
-118.05 203.848 -19.5436 7 
-197.053 280.765 8.34901 7 
-26.5987 -48.4137 -122.723 7 
-54.5741 143.479 -43.3531 7 
-193.374 287.607 -6.32 7 
-30.7052 47.5888 -84.0132 7 
-50.9362 147.611 -43.8097 7 
-239.052 326.857 8.18883 7 
-151.295 266.337 -43.8413 7 
-79.9425 134.866 -83.0894 7 
-12.4531 -102.546 -137.48 7 
-50.3043 67.5518 -84.023 7 
-174.295 259.087 11.9178 7 
-142.048 227.742 -22.5325 7 
-35.7052 19.2324 -134.773 7 
-98.1882 171.665 -67.4968 7 
-66.4329 138.454 -106.072 7 
-235.28 310.609 20.4128 7 
-48.52 125.154 -56.3815 7 
-310.889 371.044 23.8695 7 
-122.15 208.309 -15.9088 7 
-78.9025 166.626 -27.6224 7 
-173.244 264.309 -14.3564 7 
-1.83776 22.6345 -106.565 7 
-50.8717 150.384 -43.0028 7 
-174.571 259.295 8.9144 7 
-45.1153 117.589 -61.5858 7 
-87.1597 178.53 -18.79 7 
-212.613 309.264 -0.578661 7 
-129.918 215.981 -15.5649 7 
-252.475 325.434 24.4243 7 
-116.607 205.277 -10.597 7 
-266.881 343.007 15.9835 7 
-123.203 206.679 -27.5976 7 
-128.259 213.371 -44.4184 7 
-46.9487 50.9438 -90.971 7 
-46.355 55.5051 -87.9457 7 
-82.543 174.279 -98.5408 7 
-161.289 259.674 -30.221 7 
-35.5911 -8.57335 -111.2 7 
-202.856 299.01 -3.63845 7 
-188.518 273.362 16.3843 7 
-214.141 299.521 4.56036 7 
-13.5601 -41.8006 -146.163 7 
-3.01151 -28.7806 -127.888 7 
-54.0889 55.3871 -96.512 7 
-22.2254 28.312 -94.3232 7 
-5.90303 2.63222 -136.667 7 
-121.933 203.653 -47.5424 7 
-165.875 252.018 -7.52525 7 
-17.8187 -97.1857 -136.476 7 
-131.469 230.881 -51.667 7 
-161.968 247.944 -8.15447 7 
-77.2588 148.614 -43.9293 7 
-52.5994 121.224 -56.5237 7 
-75.0349 161.966 -30.2602 7 
-46.0225 110.431 -116.483 7 
-20.8504 5.46202 -137.416 7 
-173.923 283.662 -26.3538 7 
-143.189 226.645 11.8985 7 
-41.9253 14.6025 -123.535 7 
-36.6149 -2.55168 -109.422 7 
-41.218 47.9553 -88.5503 7 
-177.777 279.902 -22.1327 7 
-237.863 312.021 24.4244 7 
-5.03675 18.5177 -106.133 7 
-54.8221 75.0586 -82.9008 7 
-221.94 327.303 -2.01913 7 
-46.3188 31.2929 -119.073 7 
-44.6076 41.2706 -94.6158 7 
-172.567 257.318 8.4033 7 
-134.324 219.613 -19.591 7 
-73.3104 150.682 -102.425 7 
-27.4679 -20.8048 -136.313 7 
-160.973 244.918 12.3272 7 
-64.1168 85.3975 -87.5622 7 
-53.7674 72.1512 -83.9411 7 
-218.042 308.527 1.95162 7 
-82.1278 143.469 -55.7278 7 
-40.6644 121.28 -62.6674 7 
-25.2751 63.9226 -76.6011 7 
-182.475 267.364 16.4847 7 
-152.41 241.426 -24.5038 7 
-174.668 263.038 -11.753 7 
-114.823 199.374 -23.3299 7 
-107.347 198.961 -71.6865 7 
-114.185 203.29 -63.3583 7 
-77.3931 150.666 -98.4037 7 
-39.3247 87.2216 -124.274 7 
-86.7872 174.988 -22.9821 7 
-225.315 319.885 1.31145 7 
-129.971 235.588 -55.6661 7 
-154.429 239.533 -7.63698 7 
-206.021 314.598 -6.69369 7 
-115.884 202.608 -59.9073 7 
-191.337 294.754 -12.1196 7 
-60.9978 76.124 -91.5767 7 
-120.863 205.04 -23.5116 7 
-34.8312 -1.01706 -132.037 7 
-185.246 272.639 24.5902 7 
-49.1546 129.773 -53.5682 7 
-9.84852 -37.1292 -122.237 7 
-49.2872 137.606 -49.581 7 
-318.935 370.63 28.4254 7 
-134.706 221.097 0.063328 7 
-153.888 274.511 -42.2697 7 
-221.039 321.013 -1.36204 7 
-143.139 226.736 4.39515 7 
-190.982 274.891 8.42647 7 
-214.415 330.487 -3.08175 7 
-182.934 299.044 -19.2248 7 
-124.453 209.339 -48.5132 7 
-69.8672 123.518 -99.4338 7 
-161.83 251.725 -19.3406 7 
-87.2392 166.672 -35.5977 7 
-187.992 273.898 20.1814 7 
-90.8991 154.205 -67.5937 7 
1.96687 6.78961 -118.718 7 
-159.155 250.91 -23.6796 7 
-34.709 87.5589 -73.4294 7 
-100.534 197.289 -80.5422 7 
-7.62277 6.2754 -136.644 7 
-15.158 -76.3363 -150.97 7 
-44.6553 101.303 -66.7154 7 
-170.805 256.023 -2.61078 7 
-166.569 251.316 5.40139 7 
-67.3287 95.0013 -87.5404 7 
-9.06653 29.6926 -97.5192 7 
-117.444 219.85 -66.7022 7 
-10.2362 -57.2895 -151.279 7 
-91.1124 170.761 -35.6464 7 
-58.0349 67.4722 -95.6094 7 
-9.21323 -53.4443 -126.452 7 
-192.607 277.279 17.4061 7 
-130.575 214.728 -35.9889 7 
-134.088 219.81 -35.9702 7 
-156.705 249.205 -26.6253 7 
-95.1107 187.247 -83.8547 7 
-105.849 187.623 -67.5497 7 
-104.299 189.574 -19.7361 7 
-53.4083 86.2524 -110.32 7 
-110.23 195.217 -19.3381 7 
-22.0853 -41.0926 -142.045 7 
-37.6068 -11.7978 -112.385 7 
-152.27 237.598 -11.5538 7 
-148.538 261.292 -44.5183 7 
-140.136 225.76 -19.5514 7 
-250.724 323.172 35.3977 7 
-21.6773 -77.368 -143.271 7 
-86.557 155.276 -47.5869 7 
-147.948 233.965 -19.6444 7 
-168.922 264.9 -22.9245 7 
-254.606 327.282 24.4123 7 
-116.803 195.153 -44.5884 7 
-218.918 318.118 -0.030455 7 
-178.139 267.639 -10.8388 7 
-182.946 270.963 27.319 7 
-70.5055 111.168 -71.3444 7 
-187.027 274.339 -3.58123 7 
-114.286 199.564 -19.4866 7 
-117.964 199.925 -31.5792 7 
-240.289 313.573 28.4847 7 
-117.878 207.533 -59.4763 7 
-58.6976 66.9755 -87.8083 7 
-230.574 302.917 28.6268 7 
-221.774 316.303 1.2997 7 
-58.5675 94.4678 -106.546 7 
-179.16 275.169 -15.8932 7 
-14.5141 -60.758 -154.069 7 
-252.53 325.355 32.4124 7 
-162.3 247.6 -3.456 7 
-24.7494 44.9598 -141.364 7 
-24.6136 -58.7409 -140.587 7 
-21.9163 -84.0191 -132.801 7 
-155.06 255.021 -35.2853 7 
-145.143 228.702 0.358587 7 
-262.838 338.827 16.1479 7 
-18.5784 10.7837 -136.182 7 
-24.6791 -74.8153 -130.417 7 
-41.138 79.2185 -122.43 7 
-48.6398 109.271 -62.6304 7 
-5.3773 -42.7451 -150.012 7 
-13.9417 -57.1001 -147.905 7 
-302.26 359.984 32.5867 7 
-307.5 374.382 20.8069 7 
-129.042 217.093 -46.7334 7 
-82.6145 180.267 -16.5921 7 
-10.6912 23.3159 -99.9241 7 
-39.6758 31.282 -132.682 7 
-127.712 210.171 -31.1021 7 
-46.9266 30.133 -107.556 7 
-242.866 314.997 32.4636 7 
-184.021 269.922 20.192 7 
-220.387 297.57 20.5155 7 
-114.125 219.239 -71.2988 7 
-89.5802 159.929 -47.3133 7 
-67.358 126.868 -103.723 7 
-148.543 249.286 -40.506 7 
-181.955 267.924 20.4178 7 
-234.062 307.824 24.3736 7 
-30.6307 -20.2076 -114.736 7 
-322.613 379.293 23.3873 7 
-165.381 288.766 -33.504 7 
-45.6691 106.309 -64.7443 7 
-186.894 271.026 8.6371 7 
-188.828 273.061 4.39515 7 
-241.977 315.896 24.4087 7 
-64.3896 117.32 -104.394 7 
-8.41162 32.9951 -96.1323 7 
-231.215 306.673 20.444 7 
-242.786 341.091 5.4273 7 
-120.102 205.733 -19.7583 7 
-93.7004 184.083 -15.9226 7 
-306.403 367.181 24.4685 7 
-49.3645 50.6137 -110.641 7 
-37.5632 -3.08671 -129.394 7 
-55.8115 90.0607 -108.56 7 
-55.2997 110.253 -110.473 7 
-14.5907 35.2347 -92.5597 7 
-186.784 271.139 12.3518 7 
-171.473 258.753 -12.0709 7 
-111.878 198.596 -64.2049 7 
-39.6474 58.191 -84.3838 7 
-10.626 43.7312 -88.579 7 
-77.791 130.819 -87.5447 7 
-248.297 321.61 24.484 7 
-134.475 219.435 -23.7944 7 
-63.3494 82.9301 -91.6056 7 
0.746343 -17.6479 -128.805 7 
-214.017 303.508 1.50214 7 
-168.526 253.364 8.40104 7 
-195.04 278.848 8.45744 7 
0.004217 27.6457 -104.457 7 
-197.125 304.01 -10.396 7 
-138.363 254.422 -54.3806 7 
-286.312 355.302 20.5864 7 
-14.5995 58.2159 -74.2303 7 
-44.9416 134.557 -54.1275 7 
-114.758 206.821 -3.50331 7 
-2.29808 2.92881 -115.435 7 
-108.141 185.736 -39.7458 7 
-126.21 211.673 -19.5409 7 
-31.2111 53.9307 -82.0647 7 
-288.349 353.64 24.6404 7 
-244.361 317.555 28.438 7 
-75.5207 154.838 -100.716 7 
1.5853 -17.8342 -138.615 7 
-146.185 231.74 -16.1383 7 
-157.974 255.415 -31.4605 7 
-57.9629 83.6003 -79.9204 7 
-155.92 275.246 -40.4729 7 
-20.8696 3.66159 -105.507 7 
-55.0904 126.762 -112.037 7 
-88.6345 181.199 -16.533 7 
-15.9411 -12.0825 -140.567 7 
-254.085 327.775 20.36 7 
-185.217 292.132 -17.4073 7 
-190.132 275.761 0.331226 7 
-228.958 332.501 1.36222 7 
-227 302.939 20.5592 7 
-183.587 278.285 -12.0532 7 
-130.196 215.57 -19.2761 7 
-122.303 211.518 -7.57594 7 
-182.848 267.092 8.4325 7 
-14.664 51.4168 -79.7584 7 
-76.8285 156.92 -36.2326 7 
-55.9336 130.404 -111.738 7 
-148.831 237.037 -26.6948 7 
-14.4794 -72.7969 -154.246 7 
-49.551 90.8504 -114.277 7 
-97.3619 191.893 -82.8193 7 
-67.639 126.231 -55.2149 7 
-76.8896 133.053 -59.4266 7 
-79.7648 138.115 -58.5354 7 
-61.9521 132.689 -48.7591 7 
-208.81 288.97 23.4015 7 
-14.6628 -24.6628 -143.022 7 
-61.1226 111.956 -106.475 7 
-82.5851 174.982 -20.3461 7 
-26.6151 14.201 -100.437 7 
-127.19 242.893 -59.2758 7 
-282.324 351.92 20.6819 7 
-39.7053 71.2947 -124.7 7 
-258.78 331.145 32.3722 7 
-154.317 235.614 15.6385 7 
-258.899 331.039 24.4729 7 
-49.5137 99.2081 -114.026 7 
-1.81096 -13.1489 -123.358 7 
-286.622 351.259 28.424 7 
-56.5096 101.277 -108.487 7 
-32.8007 9.0551 -104.16 7 
-9.18856 13.653 -105.474 7 
-244.172 317.807 24.5189 7 
-181.35 268.626 24.5331 7 
-266.887 339.02 20.1315 7 
-302.299 363.956 24.731 7 
-144.52 249.296 -44.4805 7 
-271.158 342.42 20.5149 7 
-116.101 197.692 -31.6823 7 
-137.871 239.488 -47.5464 7 
-171.349 266.985 -19.7335 7 
-118.093 207.748 -7.52418 7 
-155.366 250.9 -31.7646 7 
-53.9542 99.5771 -111.023 7 
-259.022 330.897 28.3964 7 
-127.738 230.672 -56.462 7 
-98.5309 171.086 -47.3268 7 
-13.7699 -37.6016 -145.426 7 
-207.323 298.912 -0.438876 7 
-74.3683 109.724 -73.4362 7 
-27.3037 -52.859 -131.641 7 
-263.159 334.745 32.3797 7 
-184.531 289.285 -16.4898 7 
-160.56 257.291 -28.553 7 
-162.27 247.126 0.307976 7 
-119.661 202.636 -27.3461 7 
-34.5692 19.2805 -99.815 7 
-196.41 289.395 -4.37517 7 
-27.6733 -48.6941 -135.879 7 
-65.2356 95.7401 -95.6255 7 
-67.8024 118.637 -100.457 7 
-71.0434 106.346 -74.2318 7 
1.17478 11.0906 -115.448 7 
-44.3525 11.6144 -105.503 7 
-147.568 246.181 -39.6333 7 
-0.880735 17.379 -110.814 7 
0.328507 15.2487 -112.611 7 
-8.44625 17.0973 -104.326 7 
-94.9557 158.556 -54.6608 7 
-150.827 243.215 -31.6465 7 
-58.64 142.297 -42.5497 7 
-18.6331 -8.74333 -138.619 7 
-72.8547 133.23 -98.7324 7 
-317.98 367.886 31.3687 7 
-168.998 269.009 -26.8797 7 
-156.821 241.072 3.98255 7 
-53.7097 59.2458 -106.658 7 
-83.8304 146.862 -83.4861 7 
-55.6439 94.8502 -108.803 7 
-40.6246 105.26 -66.5985 7 
-107.528 182.413 -43.2623 7 
-172.607 257.275 5.40895 7 
-84.0274 137.554 -68.4964 7 
-114.063 204.122 -7.54717 7 
-190.933 275.012 12.3526 7 
-82.6326 162.336 -35.0657 7 
-155.309 271.231 -40.6048 7 
-188.945 281.061 -6.8437 7 
-211.454 296.353 1.6174 7 
-81.3883 139.696 -83.6887 7 
-224.076 301.925 16.6512 7 
-70.2322 148 -40.5048 7 
-140.344 225.867 -6.48436 7 
-41.2657 83.2519 -122.266 7 
-107.182 203.478 -0.007654 7 
-299.104 358.29 31.8962 7 
-40.6603 25.2286 -100.521 7 
-48.461 133.152 -52.3686 7 
-74.2625 159.982 -32.0822 7 
-139.219 231.03 -39.8202 7 
-85.2057 151.775 -83.592 7 
-58.9374 91.1163 -75.1321 7 
-49.2648 86.3184 -114.283 7 
-51.483 82.0788 -111.779 7 
-54.4731 79.6607 -79.455 7 
-35.8207 58.6322 -140.483 7 
-97.7594 176.02 -35.9392 7 
-286.684 351.177 32.4365 7 
-197.194 280.513 12.3906 7 
-153.292 236.621 3.90579 7 
-87.9977 169.863 -31.2658 7 
-111.472 206.492 0.705833 7 
-5.5698 -72.8428 -134.478 7 
-314.262 367.992 28.9324 7 
-199.403 294.348 -4.37063 7 
-276.951 344.844 25.3138 7 
-94.3473 190.809 -87.9414 7 
-291.133 354.247 27.8927 7 
-32.1949 -30.7139 -123.555 7 
-75.0783 134.799 -54.9656 7 
-68.1297 113.585 -66.8432 7 
-94.5436 194.867 -4.70522 7 
-47.7177 143.72 -47.5707 7 
-38.7673 43.2795 -135.293 7 
-230.763 314.775 8.30125 7 
-74.2619 163.953 -27.9377 7 
-87.5591 154.305 -51.1273 7 
-136.307 245.387 -52.2622 7 
-8.4296 25.0346 -100.275 7 
-47.0328 34.7366 -98.3186 7 
-83.2243 169.957 -26.8069 7 
-94.64 166.944 -47.4227 7 
0.368427 -20.9001 -130.246 7 
-44.6419 125.269 -58.6183 7 
-41.1873 16.1754 -126.763 7 
-44.6642 45.2227 -92.5306 7 
-79.6579 155.25 -96.6527 7 
-254.724 330.743 16.222 7 
-53.0899 76.8704 -80.0788 7 
-41.081 90.3102 -122.047 7 
-296.351 357.655 27.5598 7 
-256.86 347.163 10.6201 7 
-76.404 129.423 -62.7506 7 
-118.066 223.501 -67.002 7 
-88.8287 161.122 -44.4592 7 
-17.6509 -57.7333 -146.144 7 
-82.3739 135.506 -63.1396 7 
-289.015 360.935 18.5602 7 
-191.398 286.893 -8.17267 7 
-138.376 223.85 -23.4783 7 
-225.139 304.677 12.127 7 
-7.44366 -32.3387 -123.794 7 
-18.6283 -37.2439 -143.576 7 
-73.7386 124.192 -64.0351 7 
-7.4303 -25.1315 -142.134 7 
-60.9155 97.0438 -72.3652 7 
-123.539 227.572 -60.8493 7 
-94.8774 182.452 -19.4405 7 
-104.943 196.68 -8.17858 7 
-59.5987 267.769 -105.904 8 
-10.5226 -10.7236 -128.62 8 
-15.8926 131.164 -89.5542 8 
-78.986 276.889 -207.443 8 
-9.13103 207.76 -102.672 8 
-26.9033 62.5939 -121.647 8 
-52.509 299.14 -156.58 8 
-49.0917 174.881 -91.0233 8 
-56.217 222.648 -95.7343 8 
-16.761 251.391 -113.787 8 
-26.846 90.3765 -88.8656 8 
-16.494 164.251 -112.744 8 
-32.1616 290.614 -123.194 8 
-10.945 27.7239 -118.59 8 
-24.6042 111.26 -120.686 8 
-67.434 295.453 -126.96 8 
-36.2279 195.265 -113.863 8 
-74.8176 288.751 -176.402 8 
-42.6784 144.577 -99.2825 8 
-32.1926 223.256 -115.127 8 
-14.2257 85.3177 -112.541 8 
-47.449 244.566 -108.997 8 
-23.2938 139.595 -118.04 8 
-24.4866 65.2591 -96.3326 8 
-11.055 183.544 -96.0989 8 
-40.4451 119.938 -101.222 8 
-35.7118 268.224 -114.88 8 
-12.7396 155.764 -90.5896 8 
-52.9805 199.253 -95.4239 8 
-14.2552 111.298 -100.531 8 
-38.1101 166.298 -108.217 8 
-18.4412 44.2799 -106.436 8 
-34.712 92.2476 -111.6 8 
-12.9564 229.396 -107.925 8 
-52.043 287.028 -115.685 8 
-46.5523 298.559 -134.749 8 
-19.5204 184.056 -114.001 8 
-10.0267 7.22469 -120.677 8 
-24.0022 40.0361 -125.013 8 
-44.7397 211.266 -107.71 8 
-70.6616 293.134 -158.563 8 
-14.0515 127.281 -108.712 8 
-23.5485 208.26 -114.973 8 
-13.8428 146.886 -105.871 8 
-47.3897 155.027 -86.8224 8 
-14.0891 68.2542 -112.474 8 
-31.7264 244.208 -115.306 8 
-59.9483 250.465 -100.168 8 
-20.6183 273.285 -116.831 8 
-32.3559 76.2426 -115.341 8 
-72.1751 282.772 -190.993 8 
-28.4186 154.79 -117.541 8 
-43.5431 183.646 -105.905 8 
-24.6918 24.3578 -126.934 8 
-22.813 105.34 -86.74 8 
-31.7216 123.757 -114.651 8 
-16.4893 95.2715 -99.1801 8 
-13.0257 52.217 -118.451 8 
-35.8578 108.25 -109.885 8 
-63.6742 295.893 -141.638 8 
-14.8991 100.233 -114.472 8 
-47.6664 226.869 -107.157 8 
-47.0973 259.265 -110.027 8 
-19.5103 78.8732 -97.8774 8 
-31.5701 176.246 -116.319 8 
-58.6253 294.331 -168.655 8 
-35.6782 140.247 -110.628 8 
-14.9624 195.691 -106.689 8 
-62.7683 281.097 -109.061 8 
-59.0112 237.018 -97.1647 8 
-10.8005 169.287 -92.5087 8 
-47.8386 274.047 -112.106 8 
-42.9361 132.202 -93.6165 8 
-18.7334 118.276 -86.6447 8 
-24.3135 91.2493 -120.161 8 
-19.0735 76.257 -121.93 8 
-44.8909 163.244 -97.2038 8 
-14.9672 16.1874 -128.436 8 
-52.3437 187.35 -90.8831 8 
-38.6355 281.234 -116.656 8 
-38.0872 152.218 -108.137 8 
-24.5172 53.1558 -100.304 8 
-23.7365 232.234 -114.373 8 
-14.0709 175.266 -104.724 8 
-12.6205 39.6902 -117.797 8 
-13.4706 143.71 -89.7118 8 
-20.0449 122.78 -118.145 8 
-23.6605 195.221 -115.394 8 
-35.6147 256.246 -114.612 8 
-43.7738 293.912 -124.107 8 
-55.6203 295.387 -125.55 8 
-19.0149 220.243 -112.159 8 
-44.9656 198.961 -106.935 8 
-27.684 50.9152 -122.12 8 
-15.1888 111.865 -113.79 8 
-38.724 235.28 -112.859 8 
-13.4927 159.282 -101.596 8 
-13.9836 3.34129 -130.84 8 
-55.7369 211.259 -94.1437 8 
-36.015 207.591 -114.044 8 
-63.6153 288.337 -177.615 8 
-44.9949 144.183 -86.5951 8 
-51.4561 298.813 -145.618 8 
-13.9543 123.223 -98.5227 8 
-16.5839 59.7016 -106.099 8 
-15.3863 239.569 -110.996 8 
-63.4569 291.848 -117.515 8 
-23.2418 259.909 -115.468 8 
-28.4028 77.1419 -92.0873 8 
-13.4057 134.986 -102.023 8 
-9.03852 -2.77998 -122.339 8 
-15.4569 63.6477 -121.336 8 
-51.324 216.584 -101.951 8 
-79.4084 282.659 -197.801 8 
-19.3826 152.025 -114.596 8 
-38.6829 132.247 -105.639 8 
-43.2421 171.84 -101.739 8 
-24.6144 168.258 -116.613 8 
-17.5862 70.5959 -102.772 8 
-40.317 219.236 -111.281 8 
-51.4436 235.66 -105.827 8 
-47.9191 191.253 -102.148 8 
-8.73911 195.256 -99.5263 8 
-27.8697 99.6605 -117.828 8 
-27.6226 279.23 -118.636 8 
-16.0777 211.572 -110.232 8 
-17.9022 103.908 -94.5437 8 
-55.7709 259.269 -106.124 8 
-35.9678 184.012 -113.732 8 
-10.3399 16.2701 -118.589 8 
-39.1359 176.113 -109.061 8 
-20.3433 56.2222 -124.111 8 
-15.7068 136.25 -110.815 8 
-32.2888 56.2486 -116.346 8 
-59.5723 296.791 -133.594 8 
-32.9425 163.095 -114.897 8 
-48.3863 183.232 -98.053 8 
-32.5331 67.2311 -115.524 8 
-27.9879 131.903 -117.875 8 
-48.3079 166.296 -88.452 8 
-67.6581 289.711 -169.7 8 
-14.7228 33.241 -124.512 8 
-59.736 295.521 -149.618 8 
-16.1995 31.2679 -112.341 8 
-27.5333 252.215 -115.524 8 
-42.4808 153.259 -100.523 8 
-20.9114 87.4886 -94.569 8 
-26.7738 71.2791 -120.919 8 
-14.4195 104.254 -105.586 8 
-32.0828 147.466 -114.727 8 
-56.359 242.9 -102.919 8 
-28.6917 84.0138 -118.492 8 
-12.544 219.266 -106.716 8 
-38.836 248.251 -113.146 8 
-27.628 184.255 -116.405 8 
-43.841 287.632 -118.25 8 
-18.0006 112.117 -92.3044 8 
-50.6847 208.233 -101.604 8 
-31.9069 214.902 -115.305 8 
-54.6961 229.241 -100.635 8 
-18.0069 202.264 -113.344 8 
-67.6609 285.659 -184.637 8 
-13.5011 75.8757 -115.782 8 
-14.2691 187.207 -102.812 8 
-14.8446 24.196 -126.436 8 
-23.4716 240.469 -114.08 8 
-19.6959 104.231 -119.848 8 
-55.5129 276.064 -109.89 8 
-15.3409 91.2511 -118.14 8 
-13.557 151.921 -97.9346 8 
-27.793 266.901 -116.29 8 
-20.0798 175.938 -114.355 8 
-59.6491 294.44 -157.631 8 
-40.528 227.263 -111.536 8 
-13.4046 167.293 -101.026 8 
-51.5851 251.259 -107.459 8 
-34.183 100.225 -112.195 8 
-19.691 48.2659 -124.815 8 
-17.2343 143.546 -113.651 8 
-31.6718 232.251 -115.102 8 
-34.077 132.297 -112.122 8 
-20.0707 131.849 -117.697 8 
-22.8365 160.223 -116.217 8 
-51.7599 267.833 -109.277 8 
-34.5656 83.2612 -112.556 8 
-44.3003 266.349 -111.934 8 
-14.6347 47.2596 -112.601 8 
-15.0014 91.2566 -105.668 8 
-15.0877 80.2051 -106.764 8 
-38.6017 113.258 -104.58 8 
-13.8541 120.235 -105.64 8 
-31.8763 116.106 -114.662 8 
-23.8081 31.8173 -125.91 8 
-40.1104 297.526 -130.972 8 
-13.7252 143.912 -97.2052 8 
-17.2325 51.6146 -106.847 8 
-22.3115 83.2735 -122.204 8 
-21.9409 95.0454 -91.8523 8 
-18.7263 190.882 -111.367 8 
-13.7394 58.3037 -114.384 8 
-41.4726 127.201 -98.7702 8 
-66.702 294.149 -150.843 8 
-74.4386 291.72 -168.714 8 
-38.7835 159.279 -107.174 8 
-45.3628 156.277 -94.7594 8 
-39.0881 144.24 -105.831 8 
-15.0653 203.67 -107.064 8 
-18.6815 227.256 -111.519 8 
-23.5854 215.263 -114.762 8 
-14.8829 43.195 -123.379 8 
-30.6555 273.224 -116.735 8 
-34.6234 156.259 -112.592 8 
-35.715 119.826 -110.271 8 
-75.5581 285.65 -185.719 8 
-16.6066 119.257 -93.6028 8 
-58.6535 285.201 -112.683 8 
-51.2711 292.698 -121.009 8 
-16.6198 38.9336 -110.195 8 
-51.3536 280.496 -112.857 8 
-43.5291 191.03 -107.277 8 
-56.5899 297.148 -141.587 8 
-11.8894 -4.16468 -129.276 8 
-16.5911 259.211 -114.867 8 
-23.8337 71.9238 -95.868 8 
-15.5479 155.52 -110.363 8 
-13.9873 136.23 -95.4979 8 
-31.6651 199.654 -115.919 8 
-23.9436 223.931 -114.683 8 
-43.878 138.407 -89.6148 8 
-16.3807 70.3041 -121.038 8 
-27.5783 119.753 -118.063 8 
-15.3436 84.4546 -118.97 8 
-43.6543 252.255 -111.16 8 
-19.6114 265.299 -116.32 8 
-45.7432 219.351 -107.612 8 
-23.0175 147.276 -117.187 8 
-9.34291 214.341 -103.91 8 
-10.2591 163.024 -90.9084 8 
-39.9478 200.004 -110.898 8 
-19.2416 114.588 -119.229 8 
-28.6311 285.238 -120.634 8 
-31.6432 108.109 -114.712 8 
-52.0743 223.724 -102.547 8 
-24.5916 99.2181 -87.2768 8 
-14.5609 167.912 -107.259 8 
-23.6738 247.29 -114.35 8 
-18.821 96.222 -120.062 8 
-47.5938 297.037 -128.682 8 
-14.2523 96.2545 -109.587 8 
-78.5485 282.964 -190.597 8 
-28.426 83.193 -90.3008 8 
-41.1708 163.529 -103.173 8 
-46.5634 173.275 -96.558 8 
-43.7529 239.67 -110.367 8 
-62.509 273.312 -106.421 8 
-50.6549 189.252 -96.6081 8 
-39.9879 275.439 -114.7 8 
-10.9755 174.908 -95.2555 8 
-82.1983 281.566 -204.824 8 
-56.4861 205.298 -92.4389 8 
-35.9496 286.979 -119.858 8 
-41.8856 134.298 -99.2955 8 
-16.8969 127.478 -114.805 8 
-46.7801 204.557 -105.405 8 
-16.6263 83.5643 -101.948 8 
-27.8511 143.665 -117.783 8 
-77.2077 278.621 -201.916 8 
-31.4649 192.225 -115.977 8 
-16.6401 245.315 -112.338 8 
-21.8843 60.9304 -99.6212 8 
-47.0027 160.059 -90.3755 8 
-50.57 201.268 -100.554 8 
-63.6186 292.389 -161.64 8 
-13.9694 140.264 -106.711 8 
-23.8956 127.283 -119.07 8 
-40.0503 259.903 -112.924 8 
-14.862 120.271 -111.522 8 
-34.8969 172.038 -113.715 8 
-19.9268 55.9118 -102.944 8 
-11.4107 199.509 -102.726 8 
-12.6015 7.27454 -126.592 8 
-16.2341 171.933 -111.305 8 
-36.0937 295.085 -127.336 8 
-58.6342 293.16 -120.64 8 
-51.6659 298.331 -137.612 8 
-27.7082 204.22 -115.833 8 
-42.9641 177.183 -104.756 8 
-13.4469 127.938 -101.957 8 
-57.7105 231.439 -96.009 8 
-19.4732 36.1728 -126.171 8 
-19.8316 27.6682 -126.776 8 
-46.85 167.642 -93.9058 8 
-67.6171 296.462 -132.664 8 
-45.8481 150.525 -90.1248 8 
-38.7923 124.254 -104.71 8 
-40.6817 139.753 -102.591 8 
-44.4452 143.277 -93.9599 8 
-14.9804 127.663 -95.0062 8 
-27.0342 45.3234 -123.252 8 
-19.0134 234.296 -111.846 8 
-13.0894 149.307 -88.5012 8 
-14.846 180.231 -107.492 8 
-39.8885 187.637 -110.127 8 
-23.9245 179.905 -115.838 8 
-23.6271 188.239 -115.492 8 
-54.6414 217.255 -96.6042 8 
-31.8369 139.443 -114.703 8 
-36.1106 127.598 -109.744 8 
-50.0826 182.406 -92.3052 8 
-63.5922 294.564 -122.845 8 
-27.5607 236.262 -115.083 8 
-40.1737 171.21 -106.378 8 
-56.4756 249.297 -104.39 8 
-45.9626 178.448 -100.223 8 
-20.5071 111.653 -87.3503 8 
-27.9366 162.617 -117.091 8 
-35.6865 228.07 -113.966 8 
-43.7476 279.395 -114.656 8 
-14.8092 116.593 -98.0133 8 
-60.2751 258.83 -103.086 8 
-16.9418 123.399 -86.6389 8 
-12.5851 47.2626 -120.623 8 
-35.7727 147.93 -110.781 8 
-32.6414 88.2603 -114.611 8 
-14.6403 76.0563 -110.191 8 
-23.9552 82.5952 -93.2683 8 
-20.622 67.8891 -99.0103 8 
-10.8735 190.32 -99.388 8 
-43.6534 231.286 -109.911 8 
-31.642 263.255 -115.601 8 
-56.1127 296.131 -161.264 8 
-28.0607 227.273 -115.342 8 
-13.0795 163.275 -97.5227 8 
-54.7895 297.589 -149.595 8 
-15.2584 55.5225 -121.942 8 
-40.5849 211.999 -110.919 8 
-40.9468 148.26 -102.953 8 
-16.1737 107.298 -117.41 8 
-32.1221 95.7548 -114.554 8 
-12.9668 179.266 -101.503 8 
-55.2057 235.752 -102.172 8 
-42.7748 204.576 -108.793 8 
-39.8074 291.215 -121.999 8 
-28.7248 75.8051 -119.188 8 
-14.1191 112.271 -108.701 8 
-27.5924 220.261 -115.321 8 
-35.6095 239.273 -114.093 8 
-13.5563 147.962 -93.9415 8 
-19.6793 42.9515 -125.382 8 
-24.8909 104.256 -119.951 8 
-15.8936 148.247 -110.415 8 
-56.5608 289.419 -116.428 8 
-13.3305 35.2571 -115.283 8 
-20.2035 63.9443 -123.234 8 
-74.7613 281.006 -196.433 8 
-14.0746 90.3053 -111.538 8 
-30.6212 171.256 -116.563 8 
-27.5756 211.288 -115.514 8 
-20.6926 21.2623 -127.122 8 
-19.3839 87.2721 -121.184 8 
-51.8647 243.648 -106.736 8 
-14.3464 104.262 -110.623 8 
-18.1871 207.291 -113.092 8 
-11.2001 19.8455 -122.029 8 
-17.7375 87.2168 -98.4547 8 
-48.4787 213.277 -104.43 8 
-47.9629 299.635 -142.132 8 
-17.7643 99.1367 -96.0244 8 
-13.2198 67.768 -118.125 8 
-20.4354 167.277 -114.085 8 
-52.4164 262.328 -108.171 8 
-66.6596 295.956 -137.658 8 
-67.5396 288.245 -174.572 8 
-28.1452 259.281 -115.868 8 
-12.6894 171.682 -98.6057 8 
-17.9545 195.345 -113.357 8 
-13.8965 155.238 -105.716 8 
-15.0185 99.2695 -101.637 8 
-41.0396 243.978 -112.174 8 
-30.703 60.5847 -117.997 8 
-47.8421 283.284 -114.831 8 
-13.9802 163.296 -105.725 8 
-22.6962 49.2667 -102.66 8 
-14.9684 55.2888 -110.726 8 
-14.3401 11.307 -128.734 8 
-50.7346 301.35 -152.601 8 
-19.6165 255.272 -114.554 8 
-9.16294 179.483 -94.2039 8 
-14.6123 63.5818 -111.233 8 
-27.7776 107.607 -117.935 8 
-13.7285 131.317 -98.4753 8 
-56.4459 270.733 -108.114 8 
-62.635 287.891 -113.298 8 
-38.0254 118.256 -106.325 8 
-35.3175 274.95 -115.793 8 
-44.6673 147.919 -95.2199 8 
-15.4513 107.269 -98.1862 8 
-27.8778 55.6574 -121.379 8 
-46.6533 236.248 -108.65 8 
-12.3131 211.281 -106.099 8 
-56.4642 296.314 -153.884 8 
-18.7499 136.252 -114.495 8 
-30.5405 52.2527 -118.534 8 
-51.2171 195.87 -98.2782 8 
-10.9064 11.5629 -122.423 8 
-23.311 51.8847 -123.674 8 
-19.7305 72.5594 -99.0338 8 
-45.8371 187.445 -104.039 8 
-15.2531 188.443 -107.274 8 
-43.5601 224.259 -109.491 8 
-9.97522 -6.62583 -124.92 8 
-17.0791 75.2801 -102.817 8 
-10.8766 0.221238 -125.47 8 
-24.504 115.898 -119.886 8 
-47.6403 290.276 -119.258 8 
-32.0014 282.523 -118.799 8 
-18.7854 63.3121 -102.229 8 
-20.0867 107.845 -90.0601 8 
-22.6199 100.248 -120.814 8 
-13.4349 144.049 -102.165 8 
-63.918 291.481 -166.226 8 
-12.8105 159.931 -94.2572 8 
-60.4309 263.338 -104.34 8 
-14.464 139.23 -90.6114 8 
-53.8343 207.443 -96.0598 8 
-71.6694 286.377 -182.342 8 
-16.6518 80.2557 -120.533 8 
-55.9369 296.71 -130.012 8 
-19.6066 91.9446 -94.985 8 
-23.478 59.6709 -122.851 8 
-17.1642 119.262 -117.135 8 
-21.2314 99.5659 -91.219 8 
