ply
format ascii 1.0
element vertex 621
property double x
property double y
property double z
property double intensity
end_header
11.109646053733741 39.696201228451002 271.723817691495870 7.000000000000000
59.522013924923627 4.698087466998018 315.348630361446790 7.000000000000000
332.788296282365590 175.440505464860620 551.884294810180340 7.000000000000000
479.264770979887830 219.573473132470100 543.773251758140080 7.000000000000000
206.139299144046500 124.645978494756600 502.944587338498420 7.000000000000000
285.490589169281580 146.150515064896870 536.234512307040860 7.000000000000000
103.737403027355230 47.745379590647090 376.340803786423860 7.000000000000000
219.634083322299010 106.924440017890650 496.473669603558850 7.000000000000000
6.746427084848751 15.635756989987620 239.429370819868750 7.000000000000000
186.085057345402160 128.021584322431690 497.851947132807370 7.000000000000000
253.230312321365200 137.807418349749980 522.247295061125330 7.000000000000000
156.472704402711290 83.323331941242060 446.178891198334380 7.000000000000000
427.707745423501080 186.791783846630550 570.728137999813610 7.000000000000000
38.398987114050456 15.077889369419665 282.497721265906480 7.000000000000000
271.779371185405350 144.719534196077460 530.678244154902700 7.000000000000000
34.955635938309342 21.549667955576318 261.096210864773070 7.000000000000000
291.632346178060290 117.481980193704970 543.729666670206600 7.000000000000000
24.408759603409180 31.355195860535623 257.567182704908760 7.000000000000000
286.193784050258270 114.169422027316770 542.370724970406850 7.000000000000000
14.930035333370352 23.895633983017809 205.951049674539860 1.000000000000000
190.106265451700780 121.655670571220030 493.759704319655040 7.000000000000000
339.085641805575390 193.556175878470300 551.999826464559990 7.000000000000000
306.721633715067980 156.661161716528620 545.238381026830330 7.000000000000000
111.970434207307690 92.058252995495749 447.224852674857120 7.000000000000000
41.294997371251497 37.267049819888094 295.124469083838160 7.000000000000000
316.845032521816790 144.265304631997140 553.872480150023650 7.000000000000000
247.992725465550850 114.206289235717010 519.221949039950000 7.000000000000000
249.175624252335150 122.834304725791440 517.031307453318500 7.000000000000000
33.565325087829677 32.050981473483979 273.909558564499260 7.000000000000000
381.114616278753260 202.628839729897830 557.830180765439200 7.000000000000000
207.763717209283410 99.140095533401364 487.014695847010670 7.000000000000000
331.791633840982970 204.410828491292390 551.536954029964140 7.000000000000000
459.457787958626620 228.261829235042340 549.150340659626640 7.000000000000000
27.246338704231494 -3.670105953391641 295.894136627664640 7.000000000000000
63.364739617846439 42.640310696087084 329.554282254737870 7.000000000000000
114.543779329704080 47.040759150689567 388.031190644126010 7.000000000000000
8.151860068808247 31.679786701222703 243.592167911058710 7.000000000000000
332.897876090598800 159.083819210086290 554.827027773287680 7.000000000000000
438.373661259627000 209.484123708838240 558.133035098908410 7.000000000000000
399.753372950260540 191.321781640090360 564.175273939667700 7.000000000000000
240.019999606056250 90.589795129719178 515.765465808023010 7.000000000000000
145.718055990472380 46.872363785714626 404.211223666435790 7.000000000000000
431.752091303168870 193.953444410744000 567.158581753113710 7.000000000000000
38.780650383078388 33.026013278712988 283.975910639934280 7.000000000000000
204.007248155592950 132.034099478129890 512.590206774630590 7.000000000000000
360.431171541970340 162.198900394239440 561.943414074328300 7.000000000000000
56.964662298355051 9.982495113349593 309.959910942143440 7.000000000000000
380.386951383251360 219.389145093856830 557.544907627751510 7.000000000000000
501.525166097419800 210.575581708617900 529.533737854242420 7.000000000000000
318.288466218577010 203.911180259124020 552.151015231505990 7.000000000000000
412.406121671757550 191.100168308376650 566.634474102938160 7.000000000000000
320.028920041986680 189.164353069346990 550.299598745594720 7.000000000000000
482.881662747113240 206.713997476522680 550.156999970223980 7.000000000000000
111.768637663870890 86.469755289962862 438.505322586847680 7.000000000000000
116.093128689080250 73.824598647305280 419.202168091009810 7.000000000000000
449.533026755414650 196.664867826833700 567.283172159205610 7.000000000000000
220.181918133331210 117.163341226653840 499.726474735612210 7.000000000000000
355.413789438535390 187.329849212283190 555.754676383294510 7.000000000000000
310.518623342816800 190.696706724298080 550.562419333337520 7.000000000000000
49.495861076517244 7.603483886143650 305.637531038439870 7.000000000000000
172.616830480925610 80.717400867179364 455.997236748339160 7.000000000000000
95.396503786787363 17.397080409771604 355.869005300206820 7.000000000000000
10.877267360381289 35.617198454388117 262.003254005924650 7.000000000000000
228.051375630096320 83.207960619089448 498.566448808584480 7.000000000000000
106.799448510724400 50.048479956111947 381.310624294004190 7.000000000000000
267.913418572760010 121.343455590990660 530.973294947174050 7.000000000000000
13.929458971064918 9.748237892832236 279.639392415419370 7.000000000000000
132.179594555877000 58.539437636719441 410.437022556490830 7.000000000000000
12.639458940197368 24.436244190808580 196.990255664617390 1.000000000000000
390.309189881627330 203.836665248330520 557.928327905740500 7.000000000000000
291.095776918762230 189.743816339658220 551.454115198684350 7.000000000000000
127.287265977278880 55.832456215274817 404.512694279461020 7.000000000000000
51.442530694220089 50.049995961456652 322.717901703616180 7.000000000000000
226.284886435209610 140.166248428323740 516.967170852392200 7.000000000000000
67.633685246513863 15.623208085624341 319.987651418703140 7.000000000000000
355.333826355956660 165.184987897435920 559.508694637550780 7.000000000000000
490.697119408904310 205.910520616538460 544.857980417340060 7.000000000000000
129.381915364827680 69.652464041022483 416.288293625116810 7.000000000000000
427.384422645386110 205.561723940358720 559.772766788446010 7.000000000000000
151.787998446820100 109.918590071485030 472.519844748203980 7.000000000000000
216.405426381189780 131.594928284978780 510.523455706620950 7.000000000000000
197.664661323764450 124.720503825078280 500.782590762914080 7.000000000000000
373.484036171424010 164.348080758180000 566.364198862396050 7.000000000000000
85.294099891578128 41.157677714180522 348.089616685730280 7.000000000000000
78.975317351249046 46.500388166049831 401.770534683102310 7.000000000000000
118.325174081218990 78.757159306834382 427.740411602374650 7.000000000000000
34.229001927965449 35.041467127386689 279.546257005268220 7.000000000000000
197.198933572166080 83.488828338992462 471.291040878209290 7.000000000000000
243.158623524823870 110.484652170677750 517.266104015923360 7.000000000000000
469.979119982848430 218.382114940048840 549.398068175849740 7.000000000000000
225.865752068521120 78.960602674603820 494.570455549042150 7.000000000000000
85.656206534736839 29.666020908328278 347.667079709063220 7.000000000000000
419.516238021220660 201.043393262708380 561.584924583305790 7.000000000000000
137.990329514505280 72.288762882403901 421.936317794192230 7.000000000000000
266.838963021165570 176.132129550816560 537.371669911892350 7.000000000000000
261.395661011114330 151.013001356327150 527.945089884696470 7.000000000000000
166.475798722186740 74.329491770781786 448.091322644837820 7.000000000000000
423.468047555068720 212.201223060580160 556.016195086444780 7.000000000000000
41.045720067838054 61.089865469153253 340.334179070556900 7.000000000000000
41.311527714658894 23.840408691069399 273.269180832190390 7.000000000000000
190.625702639089750 103.377551252309800 479.835902577269450 7.000000000000000
132.434355645942790 52.531865399630291 403.027572137691380 7.000000000000000
253.716762213838760 149.866706328915910 525.035974764668140 7.000000000000000
319.422721529160810 166.676414007272200 549.016925776338330 7.000000000000000
253.543486773939970 165.087521286021230 530.663702107669220 7.000000000000000
209.119327076099920 105.007548054034860 490.018539745206060 7.000000000000000
322.880586387191610 147.579968799786570 555.292613801210680 7.000000000000000
150.354568735381780 54.536456040505769 424.927698797994540 7.000000000000000
73.758801106287819 15.128844060159601 328.131093242524740 7.000000000000000
311.301668267237350 148.476001131702160 548.876174717755700 7.000000000000000
220.302028587862760 139.540165477930880 517.163820244637800 7.000000000000000
210.809464045198580 114.028251030502420 494.911849578480600 7.000000000000000
218.325896146064590 153.227840398706550 525.272097596559770 7.000000000000000
365.544693318960920 165.064145981928280 562.701752754724570 7.000000000000000
119.890252267969970 64.048029718381144 400.378109336316410 7.000000000000000
89.127380595641682 41.544554775366137 354.873256937054920 7.000000000000000
394.218216858928540 199.632493894361940 559.306816058064440 7.000000000000000
161.262932582158300 86.941478618245611 452.858580372760290 7.000000000000000
93.995748418657058 56.014413675792994 379.653087741819380 7.000000000000000
214.450757262059450 63.683651846679908 469.159414375018510 7.000000000000000
13.750921054644596 10.880439292361103 270.369333103703130 7.000000000000000
260.005049235552060 112.802285839502420 528.768702303840430 7.000000000000000
321.798350532673850 180.939856365668790 550.248960029557340 7.000000000000000
14.792566202331031 12.350358794175172 250.445528108665940 7.000000000000000
10.749607280019699 28.691639567360291 230.034171656366000 7.000000000000000
141.968021427454720 69.108047300450352 425.173837667993380 7.000000000000000
134.106701283803030 37.153971017658648 395.372722780299680 7.000000000000000
517.331250325396920 199.667332057846860 528.856102029715200 7.000000000000000
30.262654065325997 27.339294846839024 249.412660142543130 7.000000000000000
241.773936530499330 139.902592476853210 519.298295483903640 7.000000000000000
101.659961540719810 40.498301448961357 368.793156476319380 7.000000000000000
39.544552539527672 35.645108102655840 290.644355547900370 7.000000000000000
266.090307185120030 160.512458559761850 532.212816855980800 7.000000000000000
55.973139713081068 21.157894265946936 306.226694160895080 7.000000000000000
389.290183391033570 194.601226330034510 560.363532142981850 7.000000000000000
289.582068069149270 125.310858281895150 541.131673341724540 7.000000000000000
76.058024444769075 20.660304048594568 337.444837799783390 7.000000000000000
17.673243197195308 35.997651169902717 260.710929531852680 7.000000000000000
119.392495970931070 88.833841229829275 448.819717126198330 7.000000000000000
167.981655994362280 39.899021924368498 429.118859630106730 7.000000000000000
125.532697972695900 71.999933246458809 420.384597454374390 7.000000000000000
117.977216613135710 69.903387218039313 413.620320425294840 7.000000000000000
144.415193031830200 34.351744412981517 398.904204083083530 7.000000000000000
196.201118909435000 116.144698910360430 490.903637081776370 7.000000000000000
62.591874754309472 38.459596172430992 319.419640346640050 7.000000000000000
157.521846399225180 45.414591734362091 417.715510042420140 7.000000000000000
8.868421877361865 15.605879514543773 226.066096125417940 7.000000000000000
34.630844093537448 6.553783625017175 282.074881964794710 7.000000000000000
311.930698083480310 138.140223472591370 553.417870918430140 7.000000000000000
28.935358696483753 22.347018356251390 232.833139660255030 7.000000000000000
185.915742294018140 118.069528283461140 487.463505420257090 7.000000000000000
64.003365117372311 1.955903374314900 321.966154217515170 7.000000000000000
3.033957209593702 18.714148133664089 266.495975812750770 7.000000000000000
14.438910576380490 13.557175244848054 243.556150875833740 7.000000000000000
391.613232639971390 209.646378860345750 557.279187957431080 7.000000000000000
183.517108373524650 78.145143091753113 459.910647124084160 7.000000000000000
364.728814375719480 176.085963037696670 559.239629918347420 7.000000000000000
83.618767494653440 48.013444592870925 356.599718169598080 7.000000000000000
456.722223384636100 202.836556066524220 563.168736551508800 7.000000000000000
38.212097279229525 28.484052336552800 264.689269750405060 7.000000000000000
115.476341620074240 81.057457508665792 431.291028664158030 7.000000000000000
152.566184072288850 47.669003659159550 411.786996889959770 7.000000000000000
22.804128919736790 7.213183199303074 273.765854441487990 7.000000000000000
117.500484077781350 85.927521870848224 439.750187656923570 7.000000000000000
15.281606816644317 10.991287373201871 256.839035602964320 7.000000000000000
263.787161560987330 140.205400332753840 525.656825352005510 7.000000000000000
120.452901844184690 39.371439064171369 390.665770343222680 7.000000000000000
13.020842025092200 29.127281068574170 234.803276403525870 7.000000000000000
410.148202904824810 208.163304334244460 557.487521030021300 7.000000000000000
399.302685933679870 211.746732196029340 556.524364429354360 7.000000000000000
269.854704971767660 183.292904326450780 540.947739960071540 7.000000000000000
250.629097597721940 105.916388981323720 525.058197576330490 7.000000000000000
384.573833047515680 184.094880595815200 562.988710771481350 7.000000000000000
367.832370721866080 200.110541714148700 556.629475657555640 7.000000000000000
112.300452004311480 75.730373671060107 423.470672319158550 7.000000000000000
251.241603501429010 156.700768266377220 527.323692104817720 7.000000000000000
53.102785780175481 33.254511997076087 294.829596194197680 7.000000000000000
419.356922791692280 193.333403320867400 565.912236406880990 7.000000000000000
311.918385777574200 163.588305055531260 545.582122219794310 7.000000000000000
507.956276202705280 206.708811824818580 526.912098920659100 7.000000000000000
75.060143976595270 50.794581192358933 358.279294231085150 7.000000000000000
194.534921269757490 136.144850881400940 514.606453969779300 7.000000000000000
396.023948016245530 187.003032361251710 565.401906280826670 7.000000000000000
4.819851874022270 17.986221465622378 256.319333962902530 7.000000000000000
41.624441385230760 40.350286213446111 298.878956010389800 7.000000000000000
19.165447067925726 17.148524917229089 217.944626985021190 7.000000000000000
233.825577496070250 90.747147593274917 507.553946677903580 7.000000000000000
350.006248780223360 191.290016496491830 553.873472829213260 7.000000000000000
159.544423566340980 103.342089821506560 468.468809628893210 7.000000000000000
338.600176798480560 171.728074071952160 553.779278192763630 7.000000000000000
127.559505562840540 89.720583603216852 455.787221274020910 7.000000000000000
23.153584412256695 18.307851432376040 236.868369278698370 7.000000000000000
20.464872563099391 17.640487309439060 224.292069344850090 7.000000000000000
43.212785463104900 29.900424673247116 274.533133671264860 7.000000000000000
178.875125772279150 82.716529523344704 460.447939687812720 7.000000000000000
24.033566691271371 5.681769570845503 283.961333733348170 7.000000000000000
361.209314269485450 210.887846453027180 555.577280156466030 7.000000000000000
42.607665989852812 31.317369126198344 279.950575559006780 7.000000000000000
202.916387528773610 76.400186606175453 469.083951333277750 7.000000000000000
377.553592474262080 214.472943101901420 557.499751413283090 7.000000000000000
296.703212424074760 184.570724344615230 549.434945184484600 7.000000000000000
68.677011585396542 49.397158813670615 385.107882518832580 7.000000000000000
274.766438239679810 124.126466668305990 534.106103241450680 7.000000000000000
142.631397135107990 78.102528544616973 435.503611347996180 7.000000000000000
216.984890246960130 124.441997354346230 503.260563785490660 7.000000000000000
516.919504658201730 201.500417494342170 523.275894342341190 7.000000000000000
192.370445680608190 79.175517409988529 464.733775741877140 7.000000000000000
34.475393298496265 3.596800400727616 288.383970180507160 7.000000000000000
469.178973592791750 223.577452173335130 547.580544575022030 7.000000000000000
43.397342835581938 60.439817835071111 319.770995713561430 7.000000000000000
181.934092751758840 52.862189599126367 456.630277478889070 7.000000000000000
273.444046995334590 131.699402771056500 531.303827017836170 7.000000000000000
97.996732868567378 61.063883585166096 403.622271404192250 7.000000000000000
24.156197184160625 28.117985516306206 248.432266622641210 7.000000000000000
361.785323196119750 186.013466720160520 557.082462841598390 7.000000000000000
129.941878552936090 41.553437387770074 395.377118398263060 7.000000000000000
482.210318474770590 214.752573384979310 543.920345082748670 7.000000000000000
172.361922093405410 95.760736814365004 466.306511296355380 7.000000000000000
32.849583392491624 21.473570510779766 251.717582581420000 7.000000000000000
177.717127657569850 122.806071986987500 482.996923088071640 7.000000000000000
244.004230815808110 155.616519591157040 526.282153618214240 7.000000000000000
15.046024117910843 33.571578470094963 252.190692995200690 7.000000000000000
13.327246295625635 44.964455192302793 280.541889803419910 7.000000000000000
112.634886470053640 26.217566933149122 369.429176046886200 7.000000000000000
165.406298916701930 90.922941766266959 459.075096066898140 7.000000000000000
296.411411763982870 134.338705035060970 543.354469275408970 7.000000000000000
133.134383187639910 77.078292811454361 430.787679698514410 7.000000000000000
282.238013392203240 125.650541957127250 537.630603889574560 7.000000000000000
156.258368742160680 93.571935258163109 457.407535218689530 7.000000000000000
76.629203249530306 52.273428473481985 384.271074656170870 7.000000000000000
111.435353377316940 9.504174863676994 365.161750705455400 7.000000000000000
30.912574731680461 13.458671901689762 267.448193718755480 7.000000000000000
281.306229516904070 115.364088264759720 539.949701192030370 7.000000000000000
299.324546648785140 152.320528170547110 542.172731694278470 7.000000000000000
478.405031340496350 207.002041054348130 552.787742520846220 7.000000000000000
19.604195504563528 47.188273306304922 284.667666579424580 7.000000000000000
26.799347859700507 20.891843510458365 225.865841304809690 7.000000000000000
98.664791093039810 56.555632870637893 382.113391254914010 7.000000000000000
99.896756804942271 72.706079861247233 427.840928418793570 7.000000000000000
7.345839585335583 15.188857211663162 210.079695380666890 1.000000000000000
406.788787230565620 203.708455433006410 558.997181702760490 7.000000000000000
84.092265497715957 54.662709686021898 383.233284017400880 7.000000000000000
87.647628228770202 25.285063984487039 350.136508280756520 7.000000000000000
161.215761334472940 84.769669240729030 448.852523602278780 7.000000000000000
139.607039116978460 90.090967421524795 453.431753741619050 7.000000000000000
489.363762504751090 213.500752323183750 538.860315439818920 7.000000000000000
92.593999973972160 58.138366388577879 389.013426405327210 7.000000000000000
405.517898531853010 184.127586152086790 569.951488424092530 7.000000000000000
331.313697773325030 152.478250803940970 556.689070275238920 7.000000000000000
82.912161511453064 16.415275392393738 345.876849998053670 7.000000000000000
30.877189581803481 41.619240730258731 283.766172345586990 7.000000000000000
20.423634112423773 18.518432016603242 200.900875097145700 1.000000000000000
44.041490784672149 51.238450514306855 311.337777336243220 7.000000000000000
224.333218080830760 105.852549438715680 500.213002338317840 7.000000000000000
494.349628314817890 212.465923910833960 535.169070523642520 7.000000000000000
375.694108918045690 176.157329874045840 562.934603441559720 7.000000000000000
349.633499348033580 161.616615295108860 558.849397288945510 7.000000000000000
94.891033008163504 52.911059256317472 371.091160869638830 7.000000000000000
112.212515738845700 43.467105129031594 383.428365006139470 7.000000000000000
40.908667856652492 24.740763576648156 267.043200762897750 7.000000000000000
35.651497646841868 28.114901799547425 258.860849288547460 7.000000000000000
134.132272362947840 81.169091589687412 436.756065826062870 7.000000000000000
159.630019925332820 99.608215443801640 464.995926860359530 7.000000000000000
237.039202210011240 126.062998892119350 510.761631511752850 7.000000000000000
48.019149819133816 3.248860715601609 309.409944292316420 7.000000000000000
330.391393877449330 183.116183814496080 551.232261812882480 7.000000000000000
474.696848595007280 215.945070061202840 548.311606025914330 7.000000000000000
112.282439550518380 36.946955975992722 375.941863518329000 7.000000000000000
91.509415904836317 55.758723792249725 398.350356047199680 7.000000000000000
71.424559032474505 4.173651371671227 325.867146767605670 7.000000000000000
51.353839867530858 56.495035966053024 350.284085139953280 7.000000000000000
80.806817692835537 40.173680814813530 340.085773429451880 7.000000000000000
249.160066104005720 168.238419482153150 531.421049481450720 7.000000000000000
67.909662674332466 24.709984575841247 323.042476045642790 7.000000000000000
302.702583695298640 191.863613372372810 551.916541536508250 7.000000000000000
119.069313235349180 90.207769303681474 453.723148784272670 7.000000000000000
134.675642679759870 48.370845903754685 400.860101358843910 7.000000000000000
135.022211975352090 86.406703556980631 447.158099811125790 7.000000000000000
223.898954451660500 72.579868263484173 487.653828263024480 7.000000000000000
169.864769904952310 108.946392142030320 475.089824999037320 7.000000000000000
113.909323071585460 88.923182024846966 443.489247186371640 7.000000000000000
140.916881775542520 55.319510367315900 412.386278882429050 7.000000000000000
467.781963244095830 206.715143567670480 558.103802687074680 7.000000000000000
71.132846802625352 -1.780711236015563 329.463270134527530 7.000000000000000
186.155532912012120 92.714676965902328 470.860190727613830 7.000000000000000
316.350528632493880 138.644104535198070 556.145031198237010 7.000000000000000
301.245689354998770 141.069355708366430 545.182892945915680 7.000000000000000
125.028121244600100 85.069467179920593 442.232902302415940 7.000000000000000
379.077396923347010 170.168185765702330 566.560199133434710 7.000000000000000
168.643313416012860 61.333298253702978 447.237091541642540 7.000000000000000
129.084903369011190 24.266704687364765 390.847864564864380 7.000000000000000
383.532180220494810 194.691435504236610 559.498143296571580 7.000000000000000
24.108903067613831 8.264614867831355 267.789910156405940 7.000000000000000
232.361558243275370 107.195562057673900 506.785207448503000 7.000000000000000
379.022627029151070 183.698457666993190 561.592722813075280 7.000000000000000
144.449403403901130 97.641501307564440 462.787459278078250 7.000000000000000
59.110664942541590 36.791498185499215 310.660739216254110 7.000000000000000
197.231782760478180 101.766312700015750 479.942487150152370 7.000000000000000
47.334807936420503 32.885298709789133 290.143089856848920 7.000000000000000
78.516858671789151 47.836185663789450 354.530695533468130 7.000000000000000
151.824135227228110 82.196335552183044 444.183426934945940 7.000000000000000
239.202078598705750 82.749236141384529 511.870720460819260 7.000000000000000
58.928490930830648 49.414811457872190 377.305646199516160 7.000000000000000
137.077288056786780 22.348118854429217 395.410878113635190 7.000000000000000
115.166613114433620 36.701015291324353 381.661190164550650 7.000000000000000
54.741872155191629 50.772156585872352 332.902186264291690 7.000000000000000
136.839401835688930 93.252569587160664 459.500143483141760 7.000000000000000
118.822617919063010 58.089718295737967 397.619114060602040 7.000000000000000
194.749864626865960 127.902728090560440 503.329361627342560 7.000000000000000
200.957512734630850 137.843924918092400 519.686543482413530 7.000000000000000
54.901427722935694 0.148646367915930 317.051100194734940 7.000000000000000
180.577025488006910 103.779750266858880 475.587310991073540 7.000000000000000
345.336798459574200 173.133048738964250 554.954882692036790 7.000000000000000
376.512021500256650 188.379933500569850 559.659540637312260 7.000000000000000
14.212986432940980 15.815189140782735 231.614097454003740 7.000000000000000
159.841420182783850 72.492762534653579 443.558418133526400 7.000000000000000
256.618545561589140 176.474607683933610 534.156734621025980 7.000000000000000
438.861874004710670 218.696985396916090 553.398748298732470 7.000000000000000
180.835072440892470 88.923873540157174 465.494013445986920 7.000000000000000
114.397234657194690 60.865565361118584 391.289694511974350 7.000000000000000
66.325421912110869 40.036432384082495 326.318041843130060 7.000000000000000
109.808884089477710 63.582310227066600 400.037009000488750 7.000000000000000
98.684489365835958 77.662137726813810 434.623208508591180 7.000000000000000
493.776114117036120 202.020380508127060 547.425629716959750 7.000000000000000
157.226858131014860 110.740106151409750 474.193954672951120 7.000000000000000
46.662952355100700 31.254548378300150 282.706083060434650 7.000000000000000
50.363958808848530 23.029675336595524 298.080876264563300 7.000000000000000
258.942962639280610 107.091127804149050 530.700907357250460 7.000000000000000
370.601359586169110 195.650757052676030 557.468062421006040 7.000000000000000
418.197195204993020 227.077630262892770 552.457698258182970 7.000000000000000
298.895790515633910 164.644545931477780 543.510472537177290 7.000000000000000
186.297687869137150 53.381295341461509 459.016131374371750 7.000000000000000
431.163650648212520 216.620535011453030 554.228729862557660 7.000000000000000
78.126571292098433 45.465758761905349 347.946137523847090 7.000000000000000
171.993091147059830 127.438851366996540 486.544456508383970 7.000000000000000
119.271771973380880 35.693599403717300 387.777887739666770 7.000000000000000
71.360789024735467 40.869671758130295 328.607058255215180 7.000000000000000
60.210328800442127 20.564783485672841 311.831159875939930 7.000000000000000
212.295237970188400 73.353469749518382 473.660177305104640 7.000000000000000
125.529480670027990 74.599548316686167 424.031024681240410 7.000000000000000
112.234708723062650 83.635981947826195 434.987881557735530 7.000000000000000
226.275942927179730 114.283771257089210 502.729792803547070 7.000000000000000
422.484518212839360 187.733193960904770 570.394529925413510 7.000000000000000
24.820658720508600 39.529713681027815 275.221550898351720 7.000000000000000
244.424953936617950 98.775378553519460 519.869796418290660 7.000000000000000
194.654325042569610 111.451188870234430 486.030523333759500 7.000000000000000
86.223237022659362 -0.646672196441003 340.407598457346010 7.000000000000000
265.591534170862300 106.717013079664990 535.418223027723910 7.000000000000000
239.630469859972150 106.654694339678400 514.610591424878410 7.000000000000000
252.185876263744030 101.594573726785630 527.615437663926060 7.000000000000000
277.730129186645060 165.040056575560070 537.626481456003150 7.000000000000000
50.332405852092791 0.578936914572026 314.321509177246580 7.000000000000000
533.165385604432000 196.238035199618310 513.276223009824090 7.000000000000000
222.392352005408700 146.332660738993920 521.537111260135250 7.000000000000000
27.333135469736622 32.537397020929454 264.720050022576060 7.000000000000000
219.602249127915120 73.050604901750177 482.140050210845800 7.000000000000000
185.890013824112150 134.371788733721810 505.163813330007320 7.000000000000000
188.579084134192730 82.733472200813083 465.480168841953570 7.000000000000000
97.472196226836928 37.168694833940293 362.625477110364100 7.000000000000000
63.637708387597428 37.151252134471605 313.605466540460330 7.000000000000000
286.458246666982800 162.702097470995060 539.607435295865000 7.000000000000000
294.125225336756610 122.099845436814850 544.168908515908360 7.000000000000000
51.553521924018000 56.039807189806069 343.875063950788900 7.000000000000000
52.315989867945703 54.900080208161640 356.367168535640080 7.000000000000000
51.361418392029627 29.870997006108908 285.410876236187220 7.000000000000000
320.092046417595380 136.243564815236280 559.555453062004970 7.000000000000000
300.501561964010990 121.992420869304770 547.655556688717410 7.000000000000000
255.093886494525860 125.707785904618930 521.266039046148080 7.000000000000000
301.701578074555530 180.931871932512020 548.095006731266720 7.000000000000000
212.086508596385840 144.184765396720190 521.705926773180980 7.000000000000000
158.826551620883010 61.207893915750077 438.985859043489260 7.000000000000000
251.762135945456180 133.919248678772700 519.460040508986370 7.000000000000000
210.428961108857950 110.626745451172550 491.582158267996990 7.000000000000000
124.440436489836570 23.474029191913431 375.846564615286640 7.000000000000000
30.264029037354373 36.111956933401316 274.047085375988220 7.000000000000000
226.755535393616210 99.301466279516418 501.386868487239330 7.000000000000000
370.602208000724660 179.177916324173340 560.383077531411120 7.000000000000000
188.426306862008520 58.624188740777669 459.802879833787420 7.000000000000000
49.844439985297853 56.565281932021193 337.772528731866540 7.000000000000000
523.593895321926770 198.738026425003080 518.428408054653800 7.000000000000000
17.782090730758359 21.208981829472442 196.826402201229880 1.000000000000000
156.055505400967720 89.739686463176042 454.225053689974120 7.000000000000000
331.510962016793880 142.689525740840140 561.557781754728810 7.000000000000000
280.369247712456170 133.413728604306190 534.665998600539640 7.000000000000000
403.936711452947750 222.920415503714680 554.308524381814890 7.000000000000000
194.667750805317180 131.312843066589720 507.382411770002480 7.000000000000000
294.037566836580600 176.700010637278670 545.318185992516310 7.000000000000000
164.155443076659820 97.217256558406405 463.691835022266730 7.000000000000000
341.938820013034560 150.049566765626590 560.932001695035980 7.000000000000000
341.940268243691550 185.872802602308810 552.928053781590850 7.000000000000000
139.669998959718270 87.785172588673333 449.141145627100630 7.000000000000000
316.770612255385230 155.077833513345350 549.715878647872500 7.000000000000000
352.620406882162170 182.367847805390800 555.659397560690990 7.000000000000000
89.674205121966835 53.475631708272275 372.537663670678910 7.000000000000000
124.155887655720700 53.663944495394190 400.060275597904710 7.000000000000000
94.890748106754899 8.526267903650407 356.998256185807800 7.000000000000000
12.227090999157483 25.411453838897913 201.535899709450890 1.000000000000000
151.395406318367830 89.109226054984134 451.712944602690130 7.000000000000000
173.272713267901390 84.542646668108318 458.716427768537590 7.000000000000000
362.057081265366380 197.341084482140300 555.762909330209820 7.000000000000000
346.757952543694270 203.755437773875120 552.900154355140900 7.000000000000000
21.364122951776405 51.555605269015857 289.799136432198400 7.000000000000000
401.354492662494290 204.187968817241850 558.435591562454530 7.000000000000000
230.830272428863170 137.711052784334020 516.535660354048790 7.000000000000000
290.082551309968380 138.175838530315930 538.988758757604610 7.000000000000000
22.668169079760105 7.404531560147603 277.823782136467400 7.000000000000000
335.527978367757210 179.784800062372650 552.461020031476100 7.000000000000000
242.672529558898730 166.537514467664720 530.802734930983090 7.000000000000000
24.878747236575609 17.226628741959345 249.261821747415840 7.000000000000000
94.040164779515862 66.107138086085044 425.247182697705740 7.000000000000000
268.720928184453560 140.861466761179170 528.135953086671750 7.000000000000000
514.325459335498290 204.899548234554430 521.003120961282210 7.000000000000000
406.614564374398810 214.865497968779660 555.550536850663320 7.000000000000000
193.469823934754800 59.153671024730215 461.962718003782070 7.000000000000000
203.442151527682680 83.592517953620359 475.919390025147210 7.000000000000000
502.453472763722570 200.927285099746140 541.020107049508620 7.000000000000000
174.942125164508720 42.219268269543988 446.649450390993990 7.000000000000000
11.866303249108828 32.817821014368583 248.093782778802730 7.000000000000000
326.777717111439190 142.824487359910960 559.445250523050620 7.000000000000000
61.003537606730831 30.840899254388376 309.507749208353120 7.000000000000000
80.112970284680046 13.637204495670801 339.910800225878970 7.000000000000000
189.860097738660670 117.980249405771090 490.039342612939660 7.000000000000000
25.440644747207138 50.846445907087372 292.483233322023180 7.000000000000000
229.230644393866840 130.684459366131620 511.116967502865010 7.000000000000000
78.193331138101229 38.292850385923110 336.826185274714870 7.000000000000000
206.901256406681200 86.487844821557474 482.451308802217340 7.000000000000000
11.807169632627902 14.619873433210557 205.270186261423390 1.000000000000000
324.653679798659250 156.663723835948130 552.688249302167720 7.000000000000000
72.269281604923535 31.742862507985336 330.694334552290000 7.000000000000000
124.046575267914860 19.471001050956922 372.988899955612740 7.000000000000000
90.683834793426911 44.088096706393806 358.113638830515130 7.000000000000000
366.601922524577560 216.019753436171070 556.782613070128380 7.000000000000000
178.194280447509470 113.830224139813380 480.629390245104900 7.000000000000000
436.573274751340990 192.957336034661210 568.196152435349970 7.000000000000000
35.373023498924731 1.924208692910185 297.484995015683750 7.000000000000000
92.686779803315929 50.717179016129329 362.164614318512520 7.000000000000000
175.986858949986410 133.289858026998980 493.930861557762110 7.000000000000000
103.863257780540720 70.722170866503205 420.687538130197820 7.000000000000000
233.963528580580540 119.031840620719040 507.753768107007260 7.000000000000000
58.861531530049199 52.315166092203370 348.841480245630010 7.000000000000000
326.202069579856020 195.266392711998150 550.995706843123230 7.000000000000000
178.585255125438040 61.529388361879199 455.446593430344420 7.000000000000000
9.899502861310577 13.586928097110118 264.611734330227480 7.000000000000000
105.409520409787530 29.743001538143218 365.839383177066000 7.000000000000000
175.523817565777850 92.635449664220303 463.351344113940170 7.000000000000000
161.269958075773130 44.000180866773292 423.451578751821900 7.000000000000000
342.187332729700760 168.514066264748920 554.979812294793080 7.000000000000000
24.660208377969258 18.374049443505839 243.180629130815930 7.000000000000000
39.802894587651636 16.487113476309986 288.936425212516270 7.000000000000000
240.533265466255640 128.741548795987030 513.603052709218220 7.000000000000000
220.489036551826980 135.352314454704810 513.558902950407060 7.000000000000000
372.904815065514750 216.422031263869060 557.328020150137600 7.000000000000000
221.781484586117220 94.890687105483138 496.349162607918570 7.000000000000000
7.306605482199647 30.912024662054911 238.697832122807600 7.000000000000000
20.714669565283092 24.034088683310877 218.480370746848020 7.000000000000000
53.253293281733946 53.324812312087630 362.588853338876500 7.000000000000000
208.551776821824210 65.859433341831277 467.807136025354510 7.000000000000000
19.601420232183251 7.614564285036565 281.813466994024790 7.000000000000000
123.024246627514660 29.014116199013358 382.653505232634130 7.000000000000000
149.896670262480370 43.341874702977883 403.786906418399210 7.000000000000000
371.052572226167460 204.839692598613850 556.878530127898220 7.000000000000000
117.743000987784800 30.663110178011323 375.084733437797470 7.000000000000000
162.394017143403400 61.127704491281037 442.138446570471560 7.000000000000000
42.748415152447343 11.130485955237972 297.201141143356440 7.000000000000000
47.313870811040125 11.578307713066827 299.835688960422150 7.000000000000000
240.660974785960720 117.166840539347290 511.690817153131830 7.000000000000000
2.101098233097368 22.095065164858354 251.096230527410850 7.000000000000000
103.961002611132510 13.734856086170993 362.129011263408130 7.000000000000000
385.206582192412380 176.822725564137130 566.385393778279190 7.000000000000000
18.458825090537761 26.372875640750962 228.167561675088020 7.000000000000000
288.909472266806350 155.325836308024120 538.516489710891160 7.000000000000000
38.222829137940266 2.329964546010487 306.082334954573870 7.000000000000000
198.952909060743340 79.581893106979123 469.277327208330630 7.000000000000000
134.537498791865180 83.271718424556397 440.628551751748660 7.000000000000000
6.524366736006236 16.717513176770424 271.355959134389420 7.000000000000000
485.707697728575680 203.434333769990160 552.095139258178620 7.000000000000000
34.319948521988920 40.250300289146494 289.587662454009550 7.000000000000000
408.101267533750960 199.485378301480130 561.075663346170130 7.000000000000000
114.340570815401800 62.689075166299830 398.375174973218580 7.000000000000000
38.590945168707897 29.602871030328899 268.941688154511670 7.000000000000000
111.763758198803130 40.008197955502197 379.771871552365670 7.000000000000000
180.566581324027570 127.553994891466660 492.318785458474280 7.000000000000000
101.516461941221710 9.142651407667614 360.986241729045900 7.000000000000000
277.588850964467440 176.541797218474220 540.719760434604500 7.000000000000000
11.287540998679646 12.768570077976243 254.519314722565240 7.000000000000000
141.086432851824070 38.123190988127362 398.691030686436250 7.000000000000000
228.561336173023700 121.242333229610180 501.522476630436810 7.000000000000000
418.668215092077330 216.232107157981030 554.524311538268420 7.000000000000000
464.648742492056610 204.581915011380460 560.993208439790810 7.000000000000000
428.148947959507890 225.090541183639740 551.912567879953490 7.000000000000000
88.878656404678608 55.814782917530124 409.242661390450050 7.000000000000000
155.980183494451640 65.196305909536505 437.162999855867440 7.000000000000000
93.743332122187780 25.357587474405037 355.900038997408100 7.000000000000000
126.319685262795860 87.262869736476588 448.527114641968300 7.000000000000000
78.280273561767345 50.069832228538743 393.452344170992430 7.000000000000000
104.940535843715250 85.191772575967690 439.054376835484560 7.000000000000000
276.318568859080300 116.777005668252610 537.365650513700980 7.000000000000000
277.014841464359510 160.735916799555640 535.411894055555650 7.000000000000000
165.972527532002290 87.866469080381535 454.827050921797250 7.000000000000000
85.196771346347560 4.604595175585232 347.232777147344050 7.000000000000000
142.068679905394590 61.794090566037994 422.303443288686370 7.000000000000000
315.162346961603130 175.212796900323890 548.592601769869590 7.000000000000000
72.083420901224656 42.086725461003319 334.856549665467180 7.000000000000000
324.345659364191420 173.021271260470830 550.546249052363580 7.000000000000000
191.968209110238720 94.068190881181621 475.536632872200020 7.000000000000000
108.437175345896490 55.641112810545309 382.753860107283970 7.000000000000000
100.858059978405240 37.285336760208935 365.608544597481850 7.000000000000000
215.631110827627680 106.558835859489420 494.210424822674950 7.000000000000000
45.562269768759109 43.924388345332581 305.782540766436230 7.000000000000000
109.911772320582460 30.303648591767313 369.090970687423810 7.000000000000000
297.029959583550520 147.923251668283510 541.657711639526270 7.000000000000000
351.974747905716920 208.927096165830790 554.030281013994910 7.000000000000000
325.019142090502270 164.947220379443910 551.298177909816220 7.000000000000000
84.921810584282980 45.682362911644049 346.605207955552320 7.000000000000000
303.445621330315700 174.404984113807020 546.579519209186170 7.000000000000000
383.607103776997060 206.841943639649030 557.543685664995790 7.000000000000000
72.574889763928340 44.329940058092873 342.608511805772080 7.000000000000000
295.152307223740880 171.707467976967620 544.961256639296720 7.000000000000000
270.786605301893020 172.433844214784610 536.620799728306680 7.000000000000000
266.748776768595180 115.840101795767050 531.053010078341690 7.000000000000000
93.250265161144284 40.449050987493749 360.836795661825250 7.000000000000000
216.654388714550240 91.073662755759159 490.939870450943540 7.000000000000000
80.786111796052467 20.902624876868828 343.726593663008490 7.000000000000000
99.901746021396235 25.691970647018877 360.784863127008920 7.000000000000000
53.308159166813596 17.124281231494862 303.355977291184270 7.000000000000000
224.349960955406970 76.132275501898647 491.373023776093530 7.000000000000000
26.099952633156693 15.763247433703803 255.514604254437870 7.000000000000000
153.205340348209400 76.069001656568020 439.035106776853350 7.000000000000000
371.323752251615470 187.565552554586500 558.691373439468070 7.000000000000000
135.140939599869170 29.117001412344280 395.141884786551710 7.000000000000000
20.572627001321425 29.006010691769909 245.931016517949640 7.000000000000000
70.526459734391210 23.371555059027273 327.175292033303380 7.000000000000000
19.418530290442270 22.266472503162255 208.982018143808200 1.000000000000000
222.298577622774130 83.014947931755600 492.679391078196260 7.000000000000000
357.533858557114970 218.026483698098960 553.518323443794660 7.000000000000000
87.452278709949184 57.042872958004850 414.627967116167610 7.000000000000000
143.573223534408500 55.751093004582856 417.515886553155330 7.000000000000000
154.456633355283290 57.891633336026942 432.190696096909900 7.000000000000000
353.296231520469120 152.720199224013020 563.052760977763680 7.000000000000000
216.488645927955360 83.232199230702321 487.975435104260100 7.000000000000000
171.092610796414500 57.286414993527302 448.669825068199830 7.000000000000000
149.420610530420020 61.619574229033020 429.084044136929660 7.000000000000000
165.171362089020190 40.437248257096982 413.448787873590280 7.000000000000000
242.985567484568780 151.699079591244840 524.178209346402130 7.000000000000000
202.070145602108820 115.971407015590810 492.848852287986060 7.000000000000000
212.736586911862220 139.960643100255770 518.423840731811770 7.000000000000000
32.719292934825866 18.623838373689708 264.577719064723850 7.000000000000000
8.485625049149661 15.364860520333622 219.560305824369350 7.000000000000000
207.084152851674050 117.133763968428910 494.737045403764450 7.000000000000000
104.472874351149530 58.429151078644338 387.122342367200530 7.000000000000000
230.701886398323860 102.983035315898120 505.147499249105980 7.000000000000000
10.158988745664104 15.317512746144516 213.165051863292600 7.000000000000000
220.904920507793290 91.127660937315028 493.881301301717030 7.000000000000000
139.797197043406920 98.777358862508081 465.209683923513860 7.000000000000000
182.922688419854580 114.260519830207740 483.409787020947820 7.000000000000000
36.406959620151355 12.202213261157603 279.231772869538590 7.000000000000000
446.867484755057430 209.531224139785140 558.333196147003040 7.000000000000000
165.559882161806570 57.506978992178261 443.625036484529180 7.000000000000000
150.137729831013640 34.690768549416248 400.518751727132330 7.000000000000000
84.405464442891827 49.707542884227166 402.082992455123080 7.000000000000000
31.670288459190324 19.825898353407304 258.478760912788400 7.000000000000000
19.192960279145577 28.595375825271589 242.316979494986550 7.000000000000000
78.838598179462963 6.728787999079266 332.027217037280080 7.000000000000000
199.816816754701960 97.649702473516996 481.809381459741810 7.000000000000000
393.888502957443510 178.825626922555930 569.122360318346860 7.000000000000000
412.892348461807610 187.489402216075180 569.164099521395200 7.000000000000000
279.043311233158870 153.060216985484770 535.203513381014200 7.000000000000000
390.394266050063380 170.810250901676940 571.862583355053970 7.000000000000000
61.597510364033454 52.358487596333859 357.276539989213060 7.000000000000000
412.096974823743720 223.355458408774270 553.381869076613500 7.000000000000000
37.082887674567196 22.465884743525820 264.436450972530790 7.000000000000000
111.825132461361320 72.241513795614907 416.788436756892450 7.000000000000000
31.104946179323935 45.716308327299188 297.601863417126370 7.000000000000000
156.722442451722000 76.378431727750439 442.499178225552730 7.000000000000000
158.144052401875570 57.465564316288805 435.572135400715690 7.000000000000000
10.806734396864147 34.561528998420826 257.622218669741810 7.000000000000000
149.300035490570790 50.973904466927721 417.538815227930630 7.000000000000000
196.134840790051330 90.150651545887840 475.327856471220570 7.000000000000000
237.521426672956920 103.203002773308270 512.402481782075140 7.000000000000000
358.933737819147210 175.899344660069030 557.711507786844090 7.000000000000000
175.641631422941260 53.315448463059198 451.182820015923200 7.000000000000000
88.142603348934699 49.378758625370779 359.896366317274160 7.000000000000000
295.032949937751080 160.139957536302030 541.633889180593770 7.000000000000000
129.268528015349940 21.447273519190155 383.985040601456030 7.000000000000000
164.019345106320940 50.041888275933175 437.023459331954030 7.000000000000000
45.492988281070396 0.744383659727689 311.916873135808090 7.000000000000000
86.489868506374293 16.521910742998799 349.709299970293730 7.000000000000000
39.544353796990009 47.529359448819292 305.191356223848170 7.000000000000000
218.877534513604020 98.678256264192541 495.281941518590770 7.000000000000000
212.009465219254170 70.034883131754953 470.711303074340660 7.000000000000000
230.583314449927090 152.800812949954260 524.235172353000620 7.000000000000000
119.049608655652690 65.475330028246788 405.690707524057870 7.000000000000000
77.583307491344087 44.623601075753299 344.292554871333380 7.000000000000000
339.416911314651830 209.983977305395940 552.289819280066130 7.000000000000000
86.877700672752937 55.523800043386018 386.190742001240890 7.000000000000000
90.403616523267019 33.624993001734538 354.329068592137450 7.000000000000000
13.359355925035963 46.949772422350549 288.473692660701090 7.000000000000000
134.676973023588430 73.170334923432364 425.102694128680640 7.000000000000000
60.182441464599833 45.529568150149125 327.934135962966140 7.000000000000000
268.848900893881990 130.748002262308010 528.776846976221460 7.000000000000000
448.728500879039530 225.671237357793700 551.063252635581530 7.000000000000000
471.878990140912440 207.575859800968320 555.854339904308400 7.000000000000000
173.359936457263530 65.206857392371575 452.532734700948540 7.000000000000000
422.261079446522610 196.982855454032920 563.920887942038120 7.000000000000000
58.660914458866955 24.843746808348492 309.831356758147760 7.000000000000000
65.466313264563482 47.257753030731251 337.828772711023300 7.000000000000000
171.952432961538960 77.323958752633132 453.062929767232730 7.000000000000000
143.714700238836710 73.280248018549941 427.883077961846990 7.000000000000000
127.305539877736610 65.699548094529035 407.238367834308520 7.000000000000000
64.088618203564550 15.159697070306031 316.259801077427540 7.000000000000000
464.284982264450210 226.525367597139760 548.328183829357500 7.000000000000000
138.747734646545070 45.767266856362156 400.477768967544700 7.000000000000000
56.890234195945965 29.782504193788327 301.380135233018560 7.000000000000000
235.374259644473000 107.410457313646520 510.057106450991000 7.000000000000000
211.709706372340240 117.516748648426560 497.321901793205940 7.000000000000000
509.829095351575060 207.601037748924910 523.019407442084910 7.000000000000000
304.909357264136930 130.584296371031340 549.600899115629200 7.000000000000000
225.769657746235960 90.878581957496550 499.181026897749230 7.000000000000000
192.298609485955350 71.909095119902460 462.068631178818980 7.000000000000000
233.788471149921920 142.324963690906230 519.729561827376640 7.000000000000000
164.558471324644420 53.433434346510438 440.728181692007470 7.000000000000000
